# 3D point list with one line of data per point:
#   POINT3D_ID, X, Y, Z, R, G, B, ERROR, TRACK[] as (IMAGE_ID, POINT2D_IDX)
# Number of points: 342, mean track length: 7.2125723738626961
605 7.0477371601016925 -9.5097930809603994 23.312184797161585 188 193 194 0.41542712685310218 19 28 26 30 1 21 2 23 24 40 11 16
460 1.3197390161744491 4.5889129726721549 24.124806654719862 26 26 25 0.51208066866196067 22 526 26 591 19 584
1130 10.105212393942463 5.1582919697982756 28.301195418739585 80 87 85 1.3616036780333427 28 57 8 180 9 438
461 9.431437377013367 7.1551069227079847 28.262298881238682 103 77 36 1.3120100023611752 22 527 26 593 28 488 19 586 23 511 25 434 1 573 2 613 7 526 21 403 30 448 24 406 16 559 20 684 8 597 18 474 10 528 3 447 11 436 27 373 29 482 9 756 17 452 5 456 15 382 13 441 6 428
462 -8.3901160252548497 8.3736765156430426 27.131128512196746 59 35 13 0.80030198261011776 26 594 28 508 19 587 23 529 25 436 1 576 2 612 21 405 30 465 20 660 8 609 18 517 9 746 13 491
463 -13.347056079269574 9.3298880269531921 24.396924951362593 93 68 42 1.2657242133069055 22 549 26 598 19 589 23 531 1 594 2 617 7 550 16 577 3 468 15 385
673 3.4556321332791051 9.114195938703217 22.744318335557423 184 135 95 0.86578516807117989 19 527 1 505 3 423 9 648 17 418 4 380 5 414 6 387
464 -14.236822514586807 9.5025175982246193 24.315133067949482 90 69 42 1.3044758550576125 28 491 19 590 1 561 7 528 21 411 16 549 3 450 15 379
465 -3.5026286780805709 9.5017073727967816 22.487248821053626 120 95 47 1.0045453203352857 22 533 26 602 19 592 23 517 1 578 2 573 1 563 7 520 7 529 21 394 21 413 30 452 24 426 16 552 8 600 18 503 3 451 11 461 27 400 17 460 4 410 5 466 12 398 6 443
1190 -1.8603673718509282 8.0523655413840558 26.910532093231282 1 0 0 1.607260107681882 30 259 18 170 5 166
599 15.859514113940824 9.159918229718043 15.814342951080416 89 89 84 1.5742669614117799 19 494 25 398 30 347 28 362 24 295 18 347 27 100 27 319 29 305 17 314 5 318 15 243 1 476 12 322 6 157 6 377 28 445
1699 5.6786543841934609 7.3995168624778875 27.347619494662208 0 0 0 0.059675487719950779 9 782 18 525
466 10.711064766503243 4.8150216240970565 28.841585953038027 15 24 32 1.1497381118275889 22 525 26 610 28 502 19 602 23 523 25 413 1 586 2 608 7 535 21 422 30 445 24 417 16 557 20 692 8 619 10 539 3 453 11 449 27 371 29 478 9 766 17 461 4 402 15 365 12 393 6 424 14 389 6 412
677 9.0973366171537773 5.7452468306656259 28.495464803192913 24 27 25 0.99583094293393493 22 483 25 379 1 522 2 508 21 356 30 405 8 553 17 396 5 443 6 395
468 1.4448506121230478 4.7392193772184745 21.580597681511239 14 10 7 1.5368232958130674 26 592 25 415 2 584 30 446 20 596 27 374
1138 3.8091849218670202 8.9766761165778099 23.018421228067353 158 119 60 0.47956428013287583 1 221 8 264 17 196 5 179
469 3.4453831913364783 5.1739590758231797 22.639462366634937 167 150 116 1.516302851054909 26 612 19 607 1 588 2 609 7 537 24 418 20 677 8 605 27 387 9 753
470 3.8503811737410545 5.3621667596570441 22.219635432667062 23 12 3 1.1772021793118506 22 543 26 616 28 506 19 609 23 525 25 429 7 542 21 434 30 463 24 432 18 509 10 548 3 456 11 473 27 388 29 495 13 485 4 414 12 401 14 409
471 5.9789780008510345 6.7965259009608827 27.121240909646698 196 193 180 1.2040751514298644 26 617 28 487 19 610 22 544 23 528 25 433 2 610 7 544 21 424 30 464 24 433 16 544 20 682 8 611 18 513 10 527 11 468 27 389 9 770
1188 1.4182874875663394 5.5012520036480144 21.65572958802548 21 21 5 0.5915041481379173 22 148 18 128 28 89
681 -4.1865988382745467 10.889933579767526 17.945261416380738 149 119 84 1.8585217267329246 25 422 26 572 1 550 2 593
472 -11.782552086119447 9.0615399328249726 25.238765325603012 89 56 27 1.2848056337499794 22 547 26 618 19 611 23 530 25 438 1 593 2 615 7 548 24 443 8 614 3 466 9 747
473 3.824126089367438 9.4664929076211415 23.384163006470722 199 150 110 1.6092653782751623 22 550 26 621 28 510 19 613 23 532 25 439 1 596 2 633 7 559 21 430 30 467 24 435 20 694 8 623 18 502 10 552 11 470 27 396 29 486 12 397
1198 2.1590792270383403 5.389408884203946 21.622945017524458 122 97 46 0.61867272746916357 24 252 18 301 12 223 14 303
1707 6.6861628864685789 4.9732152147364648 26.802401076839548 172 173 165 1.5346682918310435 5 508 12 437 6 469
474 -5.4548230643915456 -4.7694709697900715 26.839369816718214 0 1 6 1.435120298122819 22 538 26 609 19 615 25 427 7 553 21 380 30 458 20 658 8 604 18 508 10 554 10 523 11 446 9 727 13 454 12 383
1146 3.1084379949212892 7.5096820911041968 22.716721714422562 97 66 39 0.71332909398615119 2 362 19 204 8 399 10 360
477 5.2028354725143071 7.7682199453902392 26.365559118850953 172 128 78 1.4224922637934652 22 545 28 507 19 623 23 540 25 435 2 632 7 554 30 472 20 705 8 627 10 550 27 408 9 784
595 -4.8483609656477009 8.5651473145089021 25.931855954002366 104 64 36 1.1260314488852838 19 382 25 266 1 363 22 350 23 198 2 356 26 387 7 336 30 265 24 330 16 442 20 385 18 405 10 434 3 304 27 231 9 445 17 299 5 376 15 149 13 424 6 346
478 1.8293813052520564 6.8284401843007592 21.93154023625257 113 71 29 1.6229957278783655 22 555 26 640 19 624 26 628 28 522 28 535 23 541 23 556 25 445 25 459 7 555 7 570 30 471 30 488 24 439 18 528 10 549 10 559 11 475 11 485 21 437 21 448 2 605 27 411 29 509 9 755
479 2.4444647425981056 9.4149973048328643 22.199161691461484 159 116 64 1.5379472681836737 22 559 19 626 21 444 16 579 8 631 18 535 3 467 27 416 29 498 17 479 13 492 12 425
1196 3.9078155912958881 4.5898806304450384 23.804377997703565 1 2 0 0.9977500243820796 22 113 25 87 18 287 30 63 11 83
481 2.0639849485726023 8.5549951463745817 23.234255987235827 114 72 33 1.6899454951460255 26 643 19 633 23 559 1 612 2 643 7 573 24 454 20 707 8 628 18 534 10 562 11 489 27 424 29 511 13 500 12 423
1142 1.803797588220921 5.3787525916084098 21.653420587500481 113 79 31 0.812216804142743 2 342 7 309 23 308 8 359 9 544 17 273 12 222
615 0.99731477842826732 4.9413691783208193 23.750679513013953 9 14 20 0.78378586372895476 22 121 1 116 25 95 28 62 30 69 20 361 10 134 27 56 9 532
1651 -12.655421413803579 2.2280745866265472 25.681295128148975 165 165 160 2.1290604033832614 2 675 15 436
482 16.070986362528174 8.0524740847454961 17.190444173187672 135 138 146 1.6023760421960394 28 538 19 635 25 462 30 491 18 531 10 563 27 409 29 500 1 613 30 475
629 3.0845612932886262 7.2170795766558209 22.431614832162651 114 94 64 1.0904811580663603 19 375 1 194 8 397
484 9.1917257130023202 7.7848015376660218 27.603058437601621 159 114 71 2.0211807958091508 19 642 1 627 16 602 3 483 27 430
539 3.963137708818341 4.4017568368458653 23.415129895701721 10 18 16 0.67552700303575752 22 297 23 289 25 227 7 107 1 112 21 190 30 217 24 99 16 319 8 165 18 284 3 331 11 342 27 174 29 22 9 230 17 348 4 321 15 208 13 355
1418 1.2399186019446569 5.2718715276731434 21.775102010050784 32 19 4 0.87281360827657783 25 244 7 133 18 114 29 57
486 1.3451393169862422 9.2006206362246452 23.95505402224585 10 14 8 1.7271113930352464 22 577 26 652 19 646 23 569 25 471 21 460 30 503 8 643 28 550 27 433 29 525
633 3.6791454157998156 9.0090895221177902 22.88287666850248 184 148 92 0.74606321071105064 19 239 1 224 7 224 21 144 30 157 20 248 27 108 9 333 12 151
488 -8.4504333194874164 8.4197537809440739 26.443389352666575 79 44 13 1.6560081616808067 26 657 28 564 1 634 2 660 17 509 4 460
623 -9.1417776133519446 7.4564164626596448 26.744526670899017 84 72 61 0.97869071777875327 23 174 1 157 25 153 26 187 2 132 30 106 16 166 10 186 3 297 9 210 4 174 5 209 12 253 6 196
1659 3.9181316983323042 6.1768799612472751 22.588533200846427 102 103 93 0.31598340726575769 18 137 13 107 12 97 14 118
490 7.1192585559778143 5.0026459126611833 28.411540472152602 205 211 202 1.9017800621981515 22 582 26 659 28 568 19 653 23 571 25 478 1 636 7 588 21 470 30 513 24 469 16 611 10 580 11 503 27 442 29 537
491 10.104277209712171 6.3044973019612227 28.149706868217677 0 1 1 1.9708973829874032 22 584 26 661 19 654 23 573 25 480 1 637 2 666 21 472 30 515 24 471 16 612 10 583 26 666 28 574 3 491 28 570 27 444 29 538 17 505 4 458 15 424 12 438 6 475
637 6.1678206482712836 9.786915034761801 19.885061496226612 151 117 92 0.57728766725423419 22 236 1 255 7 244 30 166 24 195 16 260 18 206 10 263 11 322
492 15.627739812849843 6.9184883802680943 17.264672592652136 152 170 183 0.35569758836123166 19 656 1 639
1034 1.5994889121174418 4.8575490858374923 24.332258309260119 100 106 101 0.8165346568499704 16 133 18 85 22 119 9 219 17 114 14 80
493 2.5832458612231859 5.3761470540796807 24.045981114827267 116 81 51 1.9557357833431273 22 589 26 665 28 573 19 658 23 579 25 484 1 641 2 669 7 593 21 475 30 518 24 475 16 615 20 742 8 654 18 571 10 586 27 450 9 810 17 511 5 514 15 429 14 454
495 -5.1559435453006808 0.76240091424582368 27.209614794721553 117 106 89 1.8197703701773538 22 592 23 583 30 523 24 479 16 619 21 477
1148 4.3387702009074705 8.4454932609434117 24.177039539387778 39 45 30 0.46818876464392245 19 218 8 403 9 642
577 11.47497957104032 10.350308029427891 26.589071420476628 160 147 122 2.4612600946564487 19 655 23 576 24 474 18 569 3 494
496 -0.94851671214367539 3.8954176633113402 25.862365836455432 186 190 175 1.9771397223127827 22 593 26 668 19 661 23 584 24 480 3 500 15 431 17 514
631 3.0124852570472984 7.6985921681198191 22.481730826463991 139 112 77 1.0723011254367361 19 215 1 206 8 247 10 362
1603 -4.5155273167598295 7.512729916863921 28.000524030142412 20 3 4 0.61206080892856829 3 492 4 463 9 797 5 515
498 -6.0972964739741364 -4.9670413053837859 25.602416063966363 41 37 26 1.5939189391058755 26 671 19 663 1 642 7 595 2 671
1048 1.8704096213454928 9.4597519734686681 21.674387204546871 153 105 55 0.83542529496976936 19 257 16 370 10 248 11 192 9 343 13 204
499 15.446433697241694 10.306569088516605 16.761567889121416 71 64 40 1.4765389644766393 28 283 23 368 25 280 30 288 24 299 16 461 29 176 17 315 4 295 5 183 15 245
1042 11.515931355880371 9.9730472016506937 18.572978646068012 152 128 108 1.1756750281287047 2 402 16 268 15 174
501 8.8426824233342067 -11.218419838610435 23.075143705605189 222 230 236 0.0042017319584937438 19 0 23 0
619 -2.5955889005104233 6.5409484624532768 26.1732724324741 155 159 161 1.0924749140036718 25 129 28 237 1 140 2 129 21 277 30 91 24 314 11 269 29 261 17 272 5 311 5 362 14 319
1434 0.75110813473979432 0.99257449557689703 -0.067088099850891175 119 148 166 0.070967702247998643 30 228 29 265
502 7.0759632047827523 -10.612565197650511 23.009069652479468 179 188 193 0.1433589514601345 19 8 23 8 24 22
1092 -5.3136799738178242 -3.6222911550430115 25.217121105682548 98 98 82 1.7435033074307864 28 371 20 454 17 247
585 -3.1894311923160585 -7.9852156906539733 21.814308130740582 91 86 83 0.4124397908013005 19 46 25 24 6 228 5 253
504 9.1046747526173792 -9.4663100029548541 23.800801808886895 223 230 225 0.35957664558889924 19 37 23 32 7 33 9 77
639 2.473879092232508 10.9072245776751 16.699411583658858 135 100 71 0.50405485090289825 19 291 22 383 1 280
1611 14.598519782458531 6.0710631292937709 16.525971697267746 149 179 198 2.8838995321986789 30 519 5 512 6 476
506 9.0873271704912 -8.930115247217655 23.984590682624383 224 229 225 0.40233379334481356 19 53 22 39 26 46 23 45 25 30 1 40 2 38 30 15 8 81 9 89
1120 4.1523350352141053 9.1079409743565858 24.107692735412876 164 132 77 1.260709175724581 21 141 20 244
507 9.0143189179831182 -8.7224838249858028 23.933741527332977 219 229 224 0.67609873359225747 22 43 26 51 23 48 25 32 19 54 1 44 2 45 21 1 30 18 16 46 20 302 8 85 9 94
589 3.5921357982544539 5.5366212363259644 22.190186056227414 79 68 48 0.68220559397531877 19 145 25 114 24 120 10 163
1050 -5.8632081491153381 10.357942925105347 19.833217215916143 117 74 37 0.80754454399658682 22 378 28 170 16 388
509 -4.4689173269110603 -4.5012438676661946 25.635415267899972 51 52 40 1.8468097905912841 19 78 23 75 7 62 8 116 18 260 3 56 6 312
1506 12.061473679608666 5.7620338367560029 25.68453381937352 120 130 127 1.382313794627767 23 393 17 347
627 -1.0656782641930151 7.9944403522041991 27.215075806326929 86 60 24 0.64212839576122449 26 201 1 175 7 181 2 160 20 383 29 280
510 -4.6124642283795918 -4.4522474261823177 25.700419212789303 74 69 63 1.2878720200259157 22 68 26 299 23 76 22 280 25 211 2 83 21 26 30 299 16 407 18 261 10 79 3 251 11 44 17 338 13 25 6 24
511 -4.7891010771683655 -3.7420485840966173 25.806684484429784 81 71 63 0.95449117325035193 22 77 23 84 25 62 1 81 21 33 30 205
1100 2.3704026102871811 4.7017477971413717 24.649008114454457 0 5 6 0.34648761326007793 26 510 28 374 30 367 20 538 27 307
512 -11.019507727950804 -4.3235259487803956 33.3362366905342 67 48 34 0.6727690187034896 19 91 23 89
516 2.9287737170368251 4.0855026804823078 24.757055799655532 0 5 0 0.5604025395158071 22 290 26 315 28 49 23 104 25 215 21 42 30 210 20 169 18 69 11 228 29 12
518 1.8261486453753051 4.2552394745494269 24.715932649824094 49 56 52 0.63717348917814787 26 123 28 51 23 109 25 74 7 97 30 54 24 95 8 160 10 123 11 79 29 13 5 82
520 1.1584479954636564 5.4028442116630586 22.052064171967498 2 0 0 0.90721469734157456 28 80 23 129 22 140 26 351 25 247 21 209 30 88 18 118 27 268 11 397 29 256
522 4.2706165018056881 5.5733482719572347 22.405393141499683 182 184 188 0.34770390317777877 22 144 26 157 28 84 23 133 25 112 7 146 21 87 30 96 11 120 29 74
524 3.8553171052196555 5.6487730295880825 22.19836605775194 17 18 14 0.63894471739708236 22 150 26 165 28 91 23 145 25 120 2 149 7 151 21 91 16 171 11 123 27 64 9 452 12 80
526 2.9211596400240625 6.6603761732808913 22.510034214757258 126 106 74 1.657283651110381 19 179 26 196 23 177 7 189 24 149 8 234 11 152 27 85 29 107
528 3.0198735351127453 6.7811643693102983 22.45257828456927 100 83 48 1.1571517301875429 22 186 26 202 23 184 28 121 25 151 7 331 21 234 30 133 24 262 10 349 19 369 27 211 29 117
530 5.1155626747747327 8.7732495267272554 23.882641866579142 165 131 92 0.67504384187478306 19 230 23 203 7 347 24 169
532 -10.232143352499731 9.1050547317657653 25.321859655172467 75 43 29 1.3217590914066102 19 226 23 207 24 175 16 215 8 382 18 412 3 357
534 16.425091672159478 7.8499379106880518 17.188822202664976 127 132 156 1.2819372437184799 28 272 23 218 25 271 30 280 24 370 10 250 27 78 18 331
538 -4.6282448431543335 -5.0091671692880189 25.551670568408952 62 64 52 0.8556259650393806 19 307 23 275 1 307 7 55 24 224 2 305 16 303 20 334 18 259 17 337 4 30 15 197 12 13
540 3.8810575439648276 5.0372626277728383 22.254602352511021 122 122 119 0.94148147926192061 19 129 23 300 1 127 7 302 21 71 24 239 20 195 8 348 3 265 4 102
542 4.2878721450387367 5.3101935660532913 22.732952825929019 43 46 40 0.67131038158958944 26 342 28 232 23 305 22 308 25 240 7 307 24 244 18 94 3 272 27 180 29 254
544 2.4386126963765422 5.4540263173064707 21.492409946439555 18 6 0 0.96642869110208884 22 315 26 352 28 234 23 309 25 116 28 87 1 150 2 146 21 214 30 240 24 253 8 363 18 120 18 303 10 413 3 283 27 267 29 262 9 442 17 274 4 121 10 162 5 298 15 120 13 97 12 301 6 266 14 102 14 304
548 5.3154955882403421 8.8095616088174307 23.223050477241536 157 110 82 1.5747431508296394 19 393 26 397 23 341 2 477 7 349 30 274 24 272 18 333 3 306 11 307 9 651 21 248 17 296 13 167 6 278 14 264
552 -5.2731509813144228 -5.3138942707578334 28.122540991310913 39 37 33 1.3240350632153173 22 390 26 296 23 376 7 380
554 0.87399266771729811 5.0142692087871579 23.196674404957854 131 130 121 1.1854043405919426 22 303 26 332 28 227 23 392 25 231 30 223 27 258 29 336 4 105 21 197
556 3.0324621250959423 5.475607515790049 22.477375669629723 121 119 76 1.3890477973842437 19 346 22 312 26 447 23 399 28 381 25 352 1 332 7 397 7 456 30 90 30 377 24 248 20 551 2 511 8 457 18 110 10 318 11 262 27 309 29 391 13 90 13 431 12 220 12 334 14 371
558 3.2839270846738975 4.1733579108846808 24.382501342095235 4 7 4 1.1669513344255973 22 481 26 544 23 444 21 353 24 351 10 512 3 373 11 230 27 252 27 331 29 420 4 361 13 428
1224 -7.9433742538543362 9.5591070340527295 28.557556446541508 0 0 0 0.21469587093945652 2 641 20 700
560 9.3558067489078898 7.4566317105342144 27.027042157030021 104 70 38 0.78088071599170661 19 459 23 451 21 364 3 380 14 301
562 10.893566661797319 8.0053806629923834 24.838841277948077 117 102 66 1.2375955716181479 19 523 23 457 24 263
566 1.0886852865956922 6.2463714705678068 21.831026563576064 2 0 0 0.96274014930595386 22 491 23 477 7 495 24 363 11 423 27 341 29 427
1232 15.27273729787558 10.309994242547019 16.606821402777161 33 26 22 1.5105858765728595 1 478 28 365 16 463 18 352 23 433 24 301 25 339 27 118 5 187 4 204
568 0.95737665493632473 6.2630877844058492 21.976270336600372 8 0 0 1.3847632198481086 19 544 1 527 2 451 8 555 9 621
572 1.9285993514780728 5.3268467338930829 22.079417803758986 121 89 49 1.7249888019598032 26 615 28 505 23 527 25 431 7 540 30 462 18 511 27 391 29 481 4 416 5 470 13 470
574 -9.4580156466219254 -5.1773644509571781 29.563886395813785 0 8 0 1.4719071519745042 19 638 23 549 25 454 7 561 20 696 8 624
1240 2.217862244892661 4.7231766098383661 24.562243112672107 128 131 126 0.47378443605884513 30 60 10 128 27 45 29 24
584 -11.585735425559355 -4.0380816231065584 22.544597081455755 47 51 46 1.4895701391338398 22 588 23 578
586 9.0963097066098069 -8.9508076779938079 24.029138279114807 226 233 228 0.41949378818441668 19 52 25 31 2 39 9 90 20 38
588 3.4325729856401264 5.1829388173791209 22.540969545080909 171 153 109 1.2789589257739606 22 132 25 105 8 350 20 193 27 57 9 256 13 83
590 2.1545551977783739 5.443496694410646 21.466523847461293 22 12 2 0.5399768816250724 23 143 26 162 28 86 25 119 29 71 17 155
594 0.75843348063111193 6.8950449377203773 23.744793684017754 50 33 8 1.5972386405060612 19 174 25 254 27 279 10 426
600 15.51999608937324 7.8012908191159749 16.544803513956694 144 156 170 2.0290381057232172 19 636 25 463 18 532 10 564 27 410 30 476 29 501 4 424 28 539 30 492 29 515 5 472
602 3.4608757311957188 5.3536958501548035 22.645313668838831 167 147 117 1.1752428003252848 22 463 19 510 23 447 25 351 26 345 28 319 23 395 1 493 7 455 30 315 24 357 20 550 8 523 18 383 10 496 11 353 27 308 29 340 9 675
1323 1.4030396328386323 7.8483212668480462 23.104760303746311 46 21 4 1.9240118521039542 16 565 3 465 4 425 15 384 6 451
1482 8.915044455264562 -8.9643306757780845 24.178576337741703 121 129 142 0.48800613389952341 1 42 2 40 9 92 8 83 22 42 10 56
603 -2.3501586249365176 7.1538688549016607 26.515345279285217 145 142 133 1.3750766262290379 28 533 19 628 23 553 25 457 2 625 21 446 30 484 11 482 27 421 4 433 5 492 15 392 29 517
608 9.3013242044006663 -9.806356059167479 25.560516845743042 130 142 164 0.58625700051174379 1 35 10 53
611 -4.7197217966463896 -4.3873465523088742 25.738233367915246 46 44 40 1.2440398529641195 25 57 1 72 3 253 16 409 17 243 15 53
1426 2.2276232895884722 5.3645659751623622 21.425132005693147 106 93 70 0.52635342124620088 11 119 23 137 29 67
612 10.776018328781012 4.8055453965404089 28.751260274548727 58 71 70 0.3661272125139563 23 105 1 109 7 101
614 1.9489673170374251 4.5604210568859633 24.440022830476554 137 143 146 1.7436755647089079 23 113 26 129 1 111 10 124 3 107 9 208 17 102 5 85 14 231 10 125
616 -4.2890575469017316 6.5862877915692231 29.379510090807166 26 17 2 0.83491191541110588 22 310 28 318 1 118 7 291 21 213 30 225 24 112 8 335 18 305 10 410 3 119 11 354 4 116 5 129 13 296 12 227
618 -6.8654906329319889 6.9598640059861108 27.92795675236496 124 124 110 0.74821612643065638 1 135 3 142 9 201 13 146
620 2.8454511607951738 5.4481126494810628 22.101009953226331 129 111 72 1.3566136511721361 19 143 1 145 7 137 30 92 8 205 10 159 27 63
621 2.3798508130692997 5.5586041756733229 21.535189823109153 43 29 13 0.46735055962561678 19 150 1 151 16 178 10 169 3 148
622 3.2760399197199619 5.5824460732857339 21.719896824980733 108 107 103 0.27890253263233067 25 124 26 167 1 154 7 154 21 90 30 101 10 171
624 -9.1433792743763682 7.4513729859167075 26.746693265357713 84 72 61 1.0104246868925966 23 175 1 158 25 154 2 133 21 110 30 107 10 187 5 210 12 252
625 -2.8753200166584776 7.4686114993323196 26.9735457329738 84 87 79 1.2845282486745817 22 174 23 167 26 185 1 160 30 245 24 145 16 330 18 397 10 192 27 280
626 5.8479877305354062 7.4935157682593836 27.268060893229652 40 41 32 1.3492675683044526 19 164 1 165 21 118 30 127 20 231 8 228
628 -4.491791403065557 8.4946008430115203 26.357815777183127 101 81 42 0.85506282322413885 25 263 26 383 28 128 1 189 7 332 21 244 5 203 6 291
630 3.0014010064913124 7.441433030992795 22.565609438603204 138 114 84 0.34539692208847339 19 203 1 198 8 244
632 4.6032048946443744 8.5586682037682813 24.172966977395475 193 153 102 1.0395007575405237 23 201 1 209 7 215 24 167 8 404 9 475 13 164
634 -2.787214820474837 9.2843220213547699 23.067775305421215 112 92 40 0.93411775033560895 23 349 1 225 25 274 26 400 28 261 2 367 7 352 21 250 24 282 20 402 8 251 18 348 10 442 3 313 11 379 9 573 17 310 4 292 13 387 6 300
636 4.9155002915405595 9.0188801022994873 22.630839844747236 200 159 114 1.035760353104761 23 213 26 238 28 260 1 229 2 213 7 434 30 158 24 337 16 232 20 567 8 424 18 185 3 208 7 227 9 344 13 326 6 174
638 4.1033963395521518 10.360534465672668 18.106190983349141 174 144 102 0.96018145086036677 23 243 1 267 16 274 12 166
641 10.58658741532561 5.2323883635782513 28.664591850282463 68 72 80 1.0231199660478658 19 119 25 226 26 324 1 320 20 368 18 72 11 89
642 10.099719335118712 5.353416676789954 28.116264072498623 72 81 81 1.6498564273860581 26 132 1 322 25 84 28 61 21 62 30 70 24 235 20 472 8 343 18 74 10 137 11 242 12 50 14 48
1299 2.5443285760776408 9.6559585157494716 20.886644991581761 124 83 55 0.46634960943823972 7 239 23 231 3 232 11 194 4 198 5 220 12 162 6 200
772 1.4495503844699575 11.142783298813148 15.75985989940577 157 134 103 0.67882625146340381 28 476 2 597 22 524 21 397 30 440 18 470 27 368 29 463
643 10.27167877461957 5.5815795039028888 27.940597299177867 21 25 27 1.5712088042669048 26 137 1 323 3 106
644 0.98117227118417039 5.0220105282311636 22.07029928937369 63 41 34 1.3247015565373486 23 301 1 325 7 300 16 150 18 296 5 355 14 302
645 -2.8907638958312938 7.303698340660473 26.661054155227145 95 92 81 1.3962832797164568 22 422 11 403 17 364 4 337 12 344 14 394
647 3.6955362830465743 6.4259927138804223 22.373929707023319 72 63 49 0.97217606524368971 19 362 1 355 2 354 7 410 16 342 20 488 8 385 27 273 9 566 15 284
770 -2.1106189862444746 10.156753801064166 20.045196815491266 146 116 74 0.45177098028539264 26 586 28 472 2 591
650 5.7735649472317636 8.8676021729294199 23.107432520847009 201 160 107 0.94494082289229919 26 231 1 381 16 224
1307 11.404013205868413 8.4853076921478969 22.711009666748854 99 84 58 1.4713929445974536 30 275 3 305 11 305 18 172
1713 11.424253165562035 5.1443064933121025 28.16113838109495 135 155 169 0.90184704946223893 23 112 24 94 27 37 6 66
774 6.0878058619890512 7.7686216754169264 27.227784974932412 172 135 91 0.88495669499954221 25 407 2 604 21 386 30 430 8 598 10 529 27 357 9 737
653 9.9414947484707756 9.2420390623421547 21.392306251599283 191 172 137 1.3133337551679538 19 403 1 386 2 388
1335 2.837014393177264 8.8362994802258754 22.689509646565238 57 36 12 1.4569010082176448 22 437 26 535 7 507 10 481 5 413
654 -2.7983753533563158 9.8473997976818222 21.097665226331731 129 103 60 0.64447142376606692 22 372 26 408 1 388 2 226 7 361 21 253 24 288 16 377 8 491 10 451 11 321 9 581 4 306
768 -2.1605151231308293 9.200907494133439 23.368412482666006 82 45 20 0.76087207297619408 26 564 2 571
655 -2.4305467077001737 10.018127149084304 20.455911418209446 140 111 76 0.70559017282900738 26 262 1 394 24 296 11 323 17 322 4 308
657 -2.1064454513610436 10.129401607925537 20.116865887986091 148 122 77 0.86274796727573522 22 375 23 360 26 410 28 279 1 396 2 387 7 443 16 384 20 415 8 429 18 357 10 375 12 271
658 -3.6919370874201904 10.197526508595306 20.116914592591094 113 77 51 0.71916852740355297 23 240 1 397 2 385 24 343 8 495 3 237
1379 -5.8465821319700808 -4.9111713745500545 24.624060814391473 63 49 33 2.2090144771784446 10 587 22 598 11 512 5 520
659 -5.8381811398461201 10.868606743580658 18.156527979982627 114 90 58 0.61190919827685997 22 381 1 400 2 255 21 156 23 259 16 396 18 235 15 250
661 -4.5235219807949001 -3.9453011840184398 26.102506011472723 71 68 58 1.6580772623304025 22 285 25 213 1 431 24 305 16 412 10 294 11 339 17 391 12 279
1343 -7.745345914264246 -3.0237132211992299 24.061299678832917 55 42 19 0.028334101307137441 22 87 11 59
662 0.49652202373342758 4.6304020545523876 23.364996538862911 190 192 186 1.474267358819386 19 445 1 441 7 386 4 93
776 -15.11006370981468 9.8018139185952116 24.17331335224144 80 45 31 1.0601025083461852 1 595 21 429 8 616 9 751 20 662
663 -4.8680111311418406 7.6245681846574378 29.405820470972028 13 0 0 1.456034800404177 25 358 28 386 1 444 2 331 16 425 20 463 10 499 9 608 17 405 6 381
665 4.413727620108566 8.3352996841092004 24.992544424107948 153 120 96 1.1603188271427096 22 429 26 386 7 344 21 298 24 326 11 301 29 364
669 4.8515973120464677 9.4683476490683471 21.147209900018954 162 120 82 0.85963874769705684 19 485 1 467 2 536 16 453 8 546
1287 -3.1048142311999789 -6.7223964835228616 22.243529135239594 194 201 213 0.25041945251531778 1 56 3 48 13 14
670 1.0864788147764275 4.420631982958886 24.181153538011724 125 132 130 1.561529368488519 25 292 1 486 2 504 7 450 30 365 24 354 8 511 18 378 3 407 11 391 27 306 4 362 15 307 13 403 12 284 14 334
671 9.2967675482959375 6.8976368123468497 28.609631332830251 4 8 3 1.1613358128314866 28 323 1 494 21 281 30 318 30 380 24 356 22 487 16 479 11 359 11 421 27 177 4 92 5 398 15 269 15 308 6 252 6 364
1490 1.1690845231006743 4.9457383272908411 21.603920369044658 0 0 0 0.08600368391292279 2 130 9 240
675 -5.2629642916362851 11.419953716356208 15.991598015362545 104 72 51 1.4992577655853263 28 449 1 515 2 546 21 376 20 574
678 3.0939328790821086 5.4818096179635578 21.82742554756539 1 2 0 1.0731516780728505 25 381 1 526 7 492 21 358 24 360 16 483 20 600 18 456 11 420 12 360
679 3.007512862734901 6.3449620401033027 21.98700721925983 126 99 63 0.74804717780175389 19 546 1 530 10 515 4 366
1498 7.2811336077780071 7.3162222447841225 27.964095837209719 24 14 4 0.73679215453538394 1 336 17 262
683 1.6842915168168571 11.14670286345633 15.774022202858948 133 95 67 0.77400022386799705 28 446 1 553 2 580 22 509 21 375 30 439 18 469 27 354 29 444
685 -13.052655367425162 9.3674365354009979 25.456578856032575 77 49 31 1.2559504366253236 23 514 26 562 1 560 22 531 22 515 11 458
689 3.8378742573557543 5.3346784806960068 22.116989593819785 21 20 11 1.0339351486663195 19 608 1 572 2 600 7 543 24 431 16 560 20 680 8 608 3 455 9 754 15 368
692 -1.5857226481669346 10.405603879833464 19.105692515115905 155 119 72 0.93070792640065614 19 598 1 583 2 620 20 668
693 -2.3980889716459433 7.2556642097748716 26.631073924991437 140 146 140 0.41486097892591828 19 621 16 574 17 474
695 4.3048738974208156 9.3515236986660657 21.762017126687123 173 126 99 1.9153167644738762 23 534 1 598 16 567 27 398
696 -1.3940354338964089 8.3098818785453918 26.458534676020349 107 76 37 1.6478031580215455 25 446 26 629 1 602 2 631 21 439 5 494 6 459 15 394 17 475
697 3.2674203343764545 10.136054668320421 17.324691428214127 171 137 95 0.71838033250787725 19 637 1 615
699 1.2757764630512154 11.07030848942615 16.039569695550725 162 138 101 1.6218850695132785 22 561 2 636 21 456 28 530 30 493 18 538 27 425 29 516
705 7.0994963017208574 -10.132444109425403 23.308882034155975 181 189 194 0.38250898443378878 1 11 2 10 10 31
709 -9.5646375516025923 -4.9526585401962997 28.675857181712008 5 12 5 0.94933835676526457 1 70 2 77 20 108 8 109
711 -6.5447097516055424 -3.2665734385943019 23.981513920396232 122 121 104 1.8619082787516865 2 97 3 78 18 269 4 233
1061 -4.8041344357178692 7.6393471749891884 29.3910295337128 15 0 0 2.2815364505812141 30 429 16 480
713 2.5172927378722734 4.3415167836158188 24.795848074596297 1 5 2 0.8617081157186679 25 76 2 114 16 123 29 330 5 283 15 204 13 252 14 294
715 9.4714140017624864 7.033447586439423 28.555905836552757 82 62 51 1.1814550609658645 19 349 2 151 7 158 23 130 20 390 8 372 18 105 10 330 27 179 17 104 15 210 6 253
717 0.94902546136272681 6.7525012354415965 22.887525583562628 64 53 23 2.1508532960994309 1 356 2 170 3 417 17 408 4 388 15 339
719 4.2512997741731358 8.7897364072883057 23.566467294499631 191 138 91 0.49436596874348765 22 207 2 203 16 220 20 405 11 175 17 192 15 157
1069 1.3858582828980182 9.1196627836228128 23.46052158931138 0 0 0 1.6807102949052275 1 631 2 655 16 603 20 724 9 793 15 417
721 -9.0363011347122342 10.093961953113231 21.287753389280617 103 65 39 0.10991792577820464 19 412 2 211 3 236
723 5.0505742378368952 9.4674347418168132 21.136064010775936 187 153 110 0.3361695778342032 1 243 2 234 16 246 8 430 13 200
725 5.5927795364188153 9.5422995549521605 20.719182930793792 154 120 73 0.72607220868248368 28 162 2 238 24 189 18 199
727 -2.8735487458984128 10.870000689676642 17.540446635262445 145 122 86 0.54572010780101665 25 199 2 256 16 398 20 269
1077 8.5865144006312288 -8.2136630360236218 23.978316278885902 87 88 91 0.41085216672353214 21 7 20 45 15 34
729 8.7473512233685327 -7.9465278630977778 24.092789739032547 144 158 165 1.2865152407103577 22 54 2 287 21 12 3 44
731 -4.5435074209546498 -3.6397605050645221 26.419702642717859 92 89 74 2.7037268098386122 19 434 26 97 2 318 20 455 8 550 20 536
733 4.2778595749765866 5.3226041380853912 22.655198659783526 35 39 26 0.37582935147213159 1 137 2 338 20 374 8 360 9 547
735 5.6263497010029733 6.9116799549778856 27.386945743115611 134 134 120 1.1190083488686486 19 350 2 344 11 362 27 265 9 556
1085 3.5930348722212249 6.0634430754626463 21.894565449540668 52 50 42 0.5480019858306393 2 168 20 224 8 381 9 458
739 7.5773070032726082 9.5469895272376029 20.642224858420654 179 148 109 1.1213822393582518 1 393 19 409 2 392
741 9.1100448441429336 6.1008993184622451 28.66110158237468 21 23 23 1.1007446871780777 22 408 25 300 26 443 28 317 2 436 30 235 8 455 10 409 27 304
743 3.6771029400553101 5.2861423997477663 22.060852480544533 24 17 12 0.68637759009562382 23 396 2 442 7 394 8 456 8 524 9 619 4 325
745 5.7621440560351243 7.6157621684893346 27.220222309312213 9 0 0 0.95017859183212472 19 519 2 457 7 408 8 470 18 429 10 427 11 370 11 405 27 269 29 399 9 633 12 308 12 340
747 -1.4818360354718685 8.7447782750461851 24.816720812703995 60 31 11 0.99019937698325133 22 472 2 461 28 397 7 420 23 417 21 299 18 438 17 416 5 433 15 321
749 4.9662150827332043 8.764325285712772 23.539865262120838 165 111 73 0.82501615710879417 19 473 2 472 7 426 9 644 6 332
751 0.74934089883430899 9.5053029022813593 21.712785930368661 123 84 51 1.3157744016477586 23 430 26 490 22 368 18 204 10 249 3 363 11 319 8 489 9 652 4 350 15 295 12 320 13 388 6 299
753 -4.0392020797835642 11.609451394434762 14.968571295142736 98 65 41 1.311554777953446 28 410 2 493 21 351 20 511
755 -3.1692288217748712 -6.6000592613138753 22.229459370488605 95 93 89 0.27881483330662027 23 439 2 497 20 515 15 303
757 1.9266893122424233 5.4841339780866596 21.497477569148014 11 4 0 0.4969754431888404 26 514 28 384 2 514
759 -17.091103214205155 10.111208709815402 23.163124477351836 74 57 45 1.6760231823292031 26 584 2 523 20 602 9 703
761 4.7387037582898497 9.011217111754954 22.735080049114504 170 123 80 0.61697796457796417 22 475 23 465 25 332 28 354 2 531 21 307 8 543 9 690
763 11.616024103103785 8.6303010911326314 23.309854625553982 126 107 91 2.1395346719150372 25 326 2 533 22 431 23 419 7 477 30 336 24 331 18 400 3 351 4 338 5 359 13 375 12 310
765 -2.1915560119348583 11.089872279925876 16.574718694688514 115 80 53 0.45842700572146494 1 513 2 544 20 576 18 448
1202 3.148680796876357 8.8386372392110264 22.787691688872972 133 97 58 0.045937331588622371 20 407 18 337
773 -13.971528530729783 9.1313898382942149 24.520332076929453 121 100 76 0.86169059223904809 22 548 2 603 7 549 21 426
1182 1.599488912117442 4.8575490858374923 24.332258309260119 131 132 124 0.8165346568499704 16 132 22 118 18 86 9 218 17 113 14 81
775 8.3357851901883198 7.3806541079325347 28.329483851093006 135 103 64 1.5030911299448515 1 574 2 614 30 449 20 683 9 771 17 453 15 366
779 5.5621056746713995 7.3565598436588004 27.403551038075882 4 4 0 1.5389816345532437 26 638 2 628 7 565 24 450 20 704 11 484
1210 0.99499292105514614 5.2844332576509272 22.282112808940244 79 50 21 1.8323492183845516 20 464 2 437 26 512 27 266 28 380 9 537 25 304
1727 0.95839521059494959 7.9231209296887597 23.223043778394892 49 35 25 1.7957779416005648 5 462 6 432 14 403
780 -2.3497911487505863 7.1353462237603784 26.797664452371301 147 145 141 1.1191395270894129 2 638 1 606 16 585 20 698 8 633
781 0.36089082440158532 7.2158215767374996 24.089476667668411 116 86 44 1.7616162195713767 23 554 7 566 1 609 24 451 18 543
1721 -4.4797274513580305 8.4772918321837665 26.294907615182744 81 64 27 0.32816857243745962 7 333 25 264 6 292
782 -1.6518302761517425 11.283005884175097 15.996416524986024 105 75 35 0.82814895672744926 1 618 2 646 20 709
1254 15.705666592764377 7.0682889047822224 16.217574045677569 138 149 159 1.008774620602694 1 391 15 238
783 -8.1818976044103557 -4.677200046063362 26.951953482466603 1 9 0 0.98562837521858349 1 619 2 647 9 774
784 2.0884323641698299 7.4669125448393894 23.184521311682378 124 81 46 2.6946851144879922 1 622 2 651 3 473 4 435 5 493
786 -8.7731793009873389 8.6531614843194795 26.897104065842928 57 25 0 1.7523845587669626 19 651 22 585 23 575 25 481 24 473 8 649 3 493 11 506
787 -14.654988649361293 9.6339524206804263 22.594763228075081 81 60 45 1.8238214123253658 26 663 2 662 9 802
1154 4.3272473196314314 8.2526206913749043 25.049380591067454 125 97 70 1.1713447232227878 1 455 8 537 10 477
790 1.6526844649553889 6.5771797703101953 21.722199454416163 45 32 9 1.8983403949292563 2 459 22 492 23 411 25 258 26 464 7 191 7 498 21 363 30 257 24 365 16 348 20 487 29 431 27 344 9 564 13 434
1262 1.7038199779198904 6.6004185341852706 21.548860145484031 97 58 21 0.45130392284581716 1 533 19 549 10 516
791 -7.940623319044029 -3.0082052604476548 25.833208109199706 148 153 147 1.9844413024035601 2 104 18 40
792 -8.6685247524276736 8.3430430877488693 27.52147351984382 52 28 10 1.3321210210112646 28 124 2 144 5 216 13 382
794 2.8196459267019125 9.2651377070855006 22.618554968746228 155 111 55 0.63436069106379933 25 394 2 575
799 8.9012594910806691 -10.294817101062653 24.245882533342236 166 177 176 0.48771123150652529 22 9 7 28
800 9.0778679476359176 -9.0699038544926349 23.820272509152581 230 232 227 0.5086532560745578 1 38 7 37 8 78
801 -7.0447729111037765 -3.2460947654011556 24.94670321370111 49 28 11 0.58293141329451403 2 99 7 72 24 74 23 280
802 1.5902654092321478 4.4013711061830136 24.413680236179484 2 6 5 0.40930620329378647 25 79 26 127 7 100 21 46 11 80
803 2.3136088370810284 4.9293067043259144 24.404624155539267 108 112 112 0.86284451030393505 19 122 7 111 3 114 11 93 17 108 5 288 15 91 13 271 12 56 6 257 14 233
1623 -10.880720255704318 8.7547677855524082 26.335729485426587 92 52 23 0.9590981816853108 21 134 15 152 12 315
804 2.3136088370810284 4.9293067043259144 24.404624155539267 108 112 112 0.86284451030393505 19 121 7 112 3 113 11 92 17 109 5 287 15 90 13 270 12 55 6 256 14 234
807 0.54607345524227213 4.8789792884286296 22.867916588267793 161 167 158 1.6398057916999307 25 97 7 116 8 172
808 1.2037913912623626 5.0935524847870344 22.159017447961258 53 31 29 1.9743684174198672 1 129 7 121 30 78 24 113 18 98 2 131 29 44 10 307 6 116
809 3.2848446035487306 5.1545413620021208 21.93964774609341 116 80 49 0.45819921297111416 22 134 7 131 29 54
1631 0.92646338758324831 6.7186704339629708 22.587020639210056 0 0 0 0.42416750378201651 16 441 17 430
812 -6.5838361168454824 7.6468681670132597 27.714986443308078 68 51 16 1.6031798445946039 19 165 7 156 4 168 13 161
1487 -9.585488993520956 -2.6310333607652234 23.540057513616663 102 81 67 0.26561205586079673 16 94 17 72 4 237 15 67
813 3.6660867146784235 5.8515431745347337 22.188366550255445 65 55 45 0.38523942402245426 19 156 7 160 24 130 8 215
1158 -7.6944864196230816 -4.2160688397505597 25.694710588445719 2 1 0 0.39051626039250092 19 566 8 570 9 699
815 0.7332454866043453 6.6636150370697775 23.494640696402762 31 15 12 1.3711647948517367 26 183 7 175 22 170 25 144 28 242 30 248 27 212 29 88 13 445 12 364
816 -8.961032345499957 8.489010912258772 27.965528601448071 52 23 7 0.84613212988647302 19 185 7 177 30 130
817 9.3495284114966513 7.4669201696289447 26.977920866765349 87 52 16 0.75741882666900529 19 167 7 183 10 202 13 106 6 100
818 -1.1958770499183693 8.1108542994719528 26.822254201776094 67 29 0 0.70711927846571065 2 164 7 188 8 218
819 2.8925280170266277 6.6971614206726562 22.128181668581032 118 89 49 1.50148835413939 25 150 7 195 22 185 21 120 10 209
1186 0.51085775508197817 5.3971871422866178 23.456463289921164 174 177 160 1.6049761552802384 30 80 18 106 12 216
1703 1.4364000037636055 9.5826078141137749 21.759076897667128 149 119 75 1.1990640960086321 5 504 13 511 6 468 14 443
820 -14.079785720836719 8.3056401488702534 23.849586872344936 149 146 140 0.72593050680081406 28 134 7 200 3 215
1495 15.046932532630732 10.586554093580688 16.244282978110707 86 71 43 1.0377806120247046 16 290 17 221 15 183
821 2.3558841995148962 7.6176672055130457 23.716695402543543 87 38 17 1.3905580696455775 22 196 7 202 14 166
1488 1.8628579478208636 4.8409204259813867 24.298850978948796 125 126 129 0.51163731733344209 28 58 17 110 6 98
822 2.3558841995148962 7.6176672055130457 23.716695402543543 87 38 17 1.3905580696455775 22 195 7 203 14 165
1166 1.5079250183627515 9.4935027673507033 21.069651470800331 0 0 0 0.66550750341900722 20 729 19 649 21 466
823 10.164452135073814 7.9175126255211383 25.641837034145993 103 68 37 1.167184541097434 28 127 7 206 30 267 22 428 18 318 10 475 2 524 3 383 27 74 9 685
826 3.4889768852878231 9.3530630695052981 22.499706861610047 135 95 59 0.22481383810936439 19 250 28 157 7 232
827 -2.0700010039874464 9.6376476452823994 21.645036569704558 103 75 34 0.65821570533018925 26 255 7 235 24 192 16 371 8 423 18 210 3 314 5 233
1194 0.78451313754519303 10.009309306036322 20.109614321932305 160 116 69 0.31546553458572757 22 239 23 237 18 218 6 302
1711 16.070692292573675 8.1141423669913877 16.974326725567671 68 70 75 1.3664947136683487 4 423 12 410 5 471 13 476 16 553 6 436 14 411
828 2.5480337029200268 9.6568189127423238 20.891193195491454 105 67 29 0.46600890513060705 25 186 7 240 23 230 30 281 24 193 20 260 18 205 3 231 6 199
1503 -4.9455636446326583 10.6407515459049 18.807460212152009 117 90 53 0.50828054856664506 18 229 17 327
829 -6.9717171658268526 7.5038547450987414 30.399510158426267 52 27 13 1.9135489595447037 2 327 7 306 18 319 30 374
1705 -0.91779136539547079 9.1697516884180015 24.438747723227628 0 0 0 1.9773799950575064 5 505 13 513
1496 2.7614003907571454 10.978777886508665 16.10945334173935 121 91 56 0.47858642600204915 19 426 17 232 15 187
830 1.8925434414900373 5.4050354797857976 21.318605785221202 1 0 0 0.44962815736403455 19 348 7 312 30 94 26 161 8 362
1174 9.699052166908503 -10.719493033073213 27.0412627879127 135 136 146 1.2742220814428995 1 27 10 50 19 39
831 3.3316489157624605 5.7221596303961029 21.786202337441111 11 4 1 0.87358278772065168 26 358 7 313 21 220 18 129 3 286 11 270 27 195 13 102 12 86
832 3.3281818794290925 5.7153059422092714 21.735105719230845 11 4 1 0.54435858610200882 26 357 7 314 21 219 11 271 27 196
833 -6.9904141116799652 -5.5511368215901742 29.26728543222616 38 32 14 2.2989902654088947 22 65 23 440 26 424 7 379 21 178 22 479 30 397 20 104 8 507 11 334
834 -5.1345452500936899 -4.3406948763484383 26.220900920429305 78 70 45 0.33608149258276332 19 316 7 381
835 12.113240341970531 5.4817193499270953 27.867761720206403 128 144 154 1.3177123406711697 19 334 7 390 20 479 3 260
1266 -1.4050490547810546 8.1460123052459927 25.882416491009749 92 61 49 1.4977096106148147 28 523 14 439
837 4.0736500204367871 5.3994601724252185 22.256217843565096 31 20 18 0.90160896027518267 23 398 25 242 7 396 24 310 18 298 2 513 12 218
838 0.49719800702389289 6.3565340191101942 22.865898493514077 2 2 0 1.6010066409435995 25 315 26 458 28 389 30 243 20 380 27 277
1246 7.0804843193121965 7.3797782775851575 27.544862038827084 131 103 56 1.6433327329841219 16 155 20 392 10 193 11 284
839 4.1946471767479636 6.5074701650237508 22.964832930139636 66 32 15 0.92509721659759492 23 166 26 363 7 407 22 330 25 316 28 334 30 252 24 137 10 423 27 270 29 352 29 397
840 2.4124169267060349 6.2789372942831552 21.332679875399794 17 5 0 0.86276935161968782 19 365 7 413 30 324 16 205 20 486 18 392 29 354 5 138
841 2.0998570571477457 4.8826177359740157 24.444048944377183 1 5 5 1.0713720958593205 1 491 7 452 11 393 9 668
842 -2.5520274329440928 6.9264098327992754 26.390837020112013 129 132 118 0.79795186254961159 19 543 7 458 16 481 10 498 4 367 10 331
844 2.2299467030458402 8.8717897738518108 22.704573520609276 82 44 23 1.0949929084943817 2 474 7 476 30 340 11 416 5 370
845 -3.8033423952253544 10.139027961042082 20.298595050413116 108 71 26 1.4025346235895724 2 382 28 277 16 500 18 358 26 264 9 649 17 325
846 -3.8241357055202094 10.135859065095365 20.316782577013903 87 52 23 1.0493077856610791 2 383 7 486 16 499 9 650
847 5.91657126179686 6.9472445522301021 27.142840289810398 181 175 166 0.65107053456321173 22 489 23 450 7 494 24 381 16 511 18 427 3 410 11 422 17 398 15 310
848 3.2432893835368084 6.1698646297942554 21.761822822737606 17 15 5 1.4367066854839552 26 551 7 496 30 411 16 488 3 413 11 437 29 456 17 406 5 302 12 374 14 392
1574 -4.639723981325294 -5.0395272073933066 25.612438649713848 54 55 43 0.92445459404172592 4 29 5 22 15 196
849 3.3389463873658225 6.8708418664121318 22.781337513132666 119 93 52 2.2466068413762788 25 386 7 499 21 366 28 431 24 364 18 457 10 517 5 405 13 433 12 365 14 378
1059 -4.7806056958353693 -3.7664305903807964 25.808719730390337 84 76 50 1.5654833507506252 19 500 16 472 17 422 13 397
1735 10.991870940570886 7.4021175198233768 26.673743112155542 0 0 0 0.050525370390648916 19 170 6 95
852 -2.0784344701399609 9.5106794031106094 22.121839818308029 106 76 32 0.87272826114009039 22 519 23 503 26 582 28 468 7 521 30 435 24 412 16 538 18 490 10 534 3 441 17 459 4 409 15 362 13 467 12 392
853 2.9016632984582333 6.3761192864367828 21.909330045611121 109 77 40 1.2974837258850676 22 528 7 527 21 404 24 420 18 475 11 451 29 483 17 444 4 395 27 378 15 358 12 388
1572 3.2503348190319699 8.8926991868505674 23.024464891034707 129 109 75 1.2562516200062308 7 475 28 400 18 439 3 355 22 358 26 483 23 425 25 329 28 348 7 432 1 380 21 304 30 338 24 335 16 228 8 413 10 367 27 282 29 366 29 406 17 373 4 377 2 529 9 721 15 292 13 422 12 349
855 5.5475958733273583 7.3939680977855895 27.697902492931163 9 0 0 1.2966556555404636 22 563 23 552 25 456 26 637 28 519 7 564 30 486 20 703 27 419 29 508
856 -1.2841848996484462 8.37382632307955 26.401053363300207 100 61 22 1.5208483966808248 1 610 26 641 7 569 21 450 30 489 24 452 16 587 20 701 8 626 10 560 3 472 11 486 27 423 29 510 17 488 4 436 18 545 12 421
1582 2.4206182262400811 5.5465834901055482 21.952441892532335 123 93 51 1.0516736112368565 17 148 5 296 15 118
857 2.9675136216522642 7.9187839774926383 22.939820846313101 97 65 35 2.3383190400965286 22 566 7 572 30 490 3 474 11 487 12 422
859 1.0986010700743796 5.7476696086211279 21.745809617852132 15 11 1 1.9631568095658616 19 641 22 574 21 463 20 720 9 791
1226 -1.0002145650453678 9.0864775533672688 24.084879560920978 85 52 15 2.4823041833983526 8 642 16 606 3 486 17 499 4 451 15 416
860 6.9987205372466406 4.9341924111254798 27.848589442291058 190 196 187 1.9716781122960474 22 583 23 572 25 479 26 660 28 569 7 589 21 471 30 514 24 470 10 581 3 490 11 504 27 443 29 536
1737 -5.109823927814177 -3.5182677141452183 26.905676526541605 5 6 0 0.51398409409503754 5 266 6 234
862 1.8964596657973003 5.3777249218898593 21.596804795976841 120 89 48 1.2248985679520032 22 314 19 144 21 210 24 251 1 335 16 170 8 201 11 265 29 260
1580 2.663019784692771 9.1800390024021965 22.544394346755581 110 72 32 0.64058541746270192 19 249 20 250 13 193 5 202
863 6.721770518397804 7.5359037658230426 27.484574334439099 154 121 76 0.61428202882443417 22 420 19 457 25 313 1 449 2 453 7 463 26 518 19 516 23 452 1 498 21 341 30 384 24 316 16 482 8 536 18 389 3 381 27 311 9 683 17 353 4 328 15 313 13 366 12 305 12 338
866 -0.11627865288214907 7.8402571413268927 27.814956507011985 95 51 20 1.7010274847642772 23 406 25 255 26 367 7 405 22 177 21 291 18 324
867 13.55588916909258 6.4732052095405201 29.951835018751034 113 122 120 3.1662354677720286 22 409 7 393
1170 2.5707837917542791 5.9725908864952553 21.476673783878987 12 3 0 0.60640154912548694 28 330 19 455 25 310 1 349 7 404 30 321 24 318 16 339 8 464 2 348 20 482 18 311 10 416 3 341 27 272 29 348 9 558 17 281 4 270 5 360 15 225 13 365 12 304
1687 1.9055183065507513 6.3706981654958934 21.512438135581363 96 95 84 0.47123095310757801 13 132 12 117 6 149
868 0.71007545131075256 9.33783061873892 22.55236410246539 100 66 34 1.279267614275662 22 558 23 545 26 632 24 444 16 578 15 395
1681 -0.085257393379087484 7.8966788938365049 27.631077711976957 107 72 34 1.6722934588508243 18 476 3 412 4 396 5 459 13 460 7 516 25 408 21 385 30 413 11 452 29 471 25 416 15 374 6 430 14 416
870 -12.522623758373571 2.2019280308653113 26.453067676657117 161 156 154 0.24616509606516715 1 646 7 600
1278 3.4783844668556085 4.4149593709759998 24.201946358226255 29 34 29 1.2231789966226208 19 328 1 318 2 321 26 433 28 306 26 125 30 216 20 359 8 446 18 283 10 301 25 80 21 47 11 235 27 254 27 301 29 331 9 530
871 8.8021990974225393 -8.7370974925556002 24.242519291598537 170 184 202 2.1520373956075276 2 47 21 3 8 87
874 3.8364318887678417 4.4562063628823143 23.557065141618608 41 45 47 1.3026768613985658 25 83 26 130 21 48 30 58 27 42 29 25 4 78 5 83
875 3.6794412283366582 4.5466893900950733 23.77669010759006 35 39 33 0.13777245191045842 1 114 21 49 29 26
1178 -4.5843051467584814 -4.8096788077724106 25.341075371580477 85 66 63 0.87240612185948663 16 304 18 22 17 241
1695 4.2299378883592054 5.1464737290267015 23.455151474675517 0 0 0 0.6389636566639747 3 333 13 358
876 1.4700910643230336 4.7633604010970014 24.977658489486497 123 132 126 1.9044985131427516 19 120 21 50 3 108 11 82 29 20
877 2.3166150186071373 4.7288593946504642 24.619671975862108 9 16 16 0.48128576541225077 25 89 21 51 18 80 3 110 11 85 15 85 12 52
1689 -8.1462352224312387 8.1159364002619903 27.69692536325714 70 67 41 0.64339611442884603 10 207 12 142 6 194
878 0.85579170637183211 4.7739684152276647 23.440542534826228 161 163 161 0.36116293453515969 22 120 21 53 30 66
879 11.606912232040953 5.2464795884733979 28.002793312819978 150 172 181 0.709741576309038 1 113 21 61 30 71 16 122 8 185 10 136 3 102 9 447 11 94 14 40
882 3.8935508375626044 5.3070415526070356 22.196285591153288 77 71 65 0.5588321183050422 22 138 21 79 11 113 29 61 14 84
883 1.3253132758729571 5.3944983053888551 21.865889291282905 9 5 3 0.71941303631636988 25 113 28 320 21 81 25 306 11 264 27 69
1250 -4.7032087421196458 -3.7570064009253148 25.856660038646719 75 62 46 0.92488282996685889 21 34 10 295 15 61
1767 11.061412805015479 5.5752404227539278 28.709009178570462 82 86 88 1.3254216750608574 5 454 11 450 13 457 14 398 6 425 12 386
884 2.5739203648410656 5.3702548544618507 21.59884052797096 119 93 64 0.33657181819469456 1 146 21 82 8 204
885 3.8983707630993876 6.1664172378328601 22.534293466824082 106 98 97 0.38547881701863856 22 162 25 135 26 173 21 100 30 119 18 136 27 75 29 86 13 108 12 98 14 119
887 2.8273034424222865 6.2259958107057995 21.76327896662422 144 121 100 0.84669842651566074 25 143 26 180 21 105 30 250 8 224 2 172 11 141 27 80 29 94
