# 3D point list with one line of data per point:
#   POINT3D_ID, X, Y, Z, R, G, B, ERROR, TRACK[] as (IMAGE_ID, POINT2D_IDX)
# Number of points: 351, mean track length: 5.4619364375461936
824 -1.5805242952048191 -5.8189907438671034 18.326915979856469 159 162 161 0.79456481484833397 30 922 29 875 37 983 36 411 38 1465 22 1763 35 1096
826 0.079827538420108868 -5.7365915368214528 18.459807887438217 172 132 120 0.54429436906280282 39 1048 29 885 32 1253
828 -1.6040396425660055 -5.6246956333335625 18.358042197727933 160 171 183 0.10266015859964839 30 930 29 889 37 993
1711 -4.9919582143035459 -3.6866385775416082 19.060599981820364 71 81 85 0.72083384731333133 28 1045 27 846 36 540 21 1450
830 -3.9500584353594617 -5.4448348090789711 18.424713190310648 180 94 45 0.73845936291753977 30 938 29 900 28 1511 36 1162 21 1735
1705 -1.7252167301478532 4.3210464866980471 19.596895546700825 99 83 52 1.2456018397495379 28 1401 27 660 25 973
831 -0.6413610311987874 -5.3982787689025589 18.516526143381959 189 98 81 1.0202040818954941 39 257 29 904 36 1158 38 1123 22 1490
832 -1.0960236692113334 -5.3671483284231494 18.466145802853706 191 96 78 0.54837324881584493 30 948 29 907 40 1326 37 1007 39 1057 36 1163 38 1476 21 1420 22 1484
835 -1.6793176421684306 -5.3435543499869995 18.422359679250416 187 97 73 0.51802394814892538 30 947 29 914 37 1006 21 1418 22 1777 39 1056
1266 -2.0366075781874216 -4.0696790889898109 19.043866480789273 224 180 208 0.4522680808394014 39 367 40 1370 30 258 31 1344 37 1046 36 1215 38 1496
836 -4.7979013276158735 -5.0588988850525549 18.376865524743724 114 52 44 0.25452452543013576 30 955 29 915 37 1020
1783 2.25665736371668 5.1225062914629227 7.9253023190744711 71 43 10 0.61272781170575674 28 2062 27 1806 26 1696 25 1425
838 -5.6037614454786118 -5.0406989169595375 18.4012579730209 183 105 61 0.35529696287779988 30 958 29 922 36 461 21 1741
1777 -0.10927334717719223 0.47474199003141943 19.826939747430711 231 248 235 1.8579497895233372 29 1414 27 1722 37 1250 21 2097 26 1784 25 1497 22 2187
839 10.286067936925658 -6.2455246929813057 21.933948650519188 181 190 192 0.67934233689152113 30 167 29 924 37 281 36 416 33 342
840 -0.96720466549759787 -5.0795111851194257 18.495389536197965 27 27 31 0.44264116005033183 30 964 29 925 40 1333 28 1532 27 1312 37 1022 31 1326 36 1175 39 1067 38 1479 21 1758 22 1780 35 1106
842 -2.4640671944727166 -4.3775792360233883 19.169945555963348 129 139 150 0.33113890355962372 30 225 29 949 40 441 28 1019 27 1324 37 1033 31 1338
844 -0.17141230698302928 -4.2900771150128021 19.252881084188022 255 255 255 0.33067862419934013 30 1000 29 958 40 1369 28 1043 27 840 21 1440 25 688
1791 -3.8567282171570048 0.36180298470069899 19.904035955559326 46 61 60 0.90826306220420872 28 2140 27 1892 22 2191 21 2096
846 -6.3690267445202036 -3.6773116492395119 19.392887050262036 156 177 172 0.35579288088140104 39 413 29 974 37 1068 36 1234
1785 0.073679935965066057 5.2698162904347488 7.5101800457500092 110 84 39 1.3483599560800645 24 1065 27 1808 26 1717
847 -1.2468436935233891 -3.8233065672923709 21.163274516761877 175 190 208 0.53664587846153966 29 978 28 1580 22 2263 30 1027 32 1281
850 -2.0673180576654011 -2.6216278720757709 18.824098782426333 249 255 255 0.96554510210126032 30 340 39 1489 29 987 40 1423 27 914 31 350 28 254 38 1534
1059 12.73236409900721 -1.1469714843701251 23.124318465250905 134 135 127 0.62271318025318745 24 60 23 59 27 373 21 446 22 540 32 464 32 465
851 12.352672890467989 -2.8141630710794323 23.03091620455033 180 190 194 0.94828879584378489 30 1046 29 993 24 2 23 404 40 594 28 302 27 244 37 1095 38 530 26 158 32 399 33 398
1218 -5.0127679449433984 -0.52996115675975597 19.462642329684023 177 162 153 0.79524627817897986 29 475 40 732 28 1194 27 352 37 554 36 738
854 -4.3006099628779468 -1.5770886811524201 19.406810426902695 63 61 57 0.80993704732831839 30 1056 29 1008 40 1819 28 1611 27 1665 28 1927 21 2058
1729 -4.1449661628708707 0.83365743415775628 19.690059282688246 113 131 136 0.24288023632360461 30 601 27 1115 40 1550 37 673 36 834
855 4.1197438006291582 -1.5099957550385654 20.762548937945038 199 190 151 0.89997479101044042 30 1072 29 1019 28 1140 27 972 21 1107 24 733 22 508
1572 -5.069413532767908 -0.60652041527531442 19.419288466705581 80 81 84 0.6181905512261513 39 564 28 1656 27 1009
858 -4.7944607382509021 -1.3946004798049159 19.396573538787372 93 89 54 0.32896402244532785 30 1069 39 1181 29 1023 40 1827 28 1930 27 1668 37 1113 21 1836
1067 0.46534323193715649 5.00563750954126 9.9791760985999396 92 70 44 0.44859453407730077 24 310 23 253 26 654 25 630
1226 -3.7217848520943835 -0.16047008378224434 19.384539732443212 127 132 137 0.48181992959301656 29 510 40 779 28 478 27 413 21 1200
1737 -3.847187042269216 2.1333890538124942 19.549610631648008 158 163 154 0.48363955964677963 28 649 27 1167 22 1720 21 1305
1580 13.358231135048763 4.3689930791167368 9.9404439545036425 93 82 74 0.68741075419502884 40 2176 28 1802 31 1727 38 1862 26 1124 25 531
864 10.685914052926281 -0.57872088542705935 21.011586109447425 151 143 129 0.91350269167617448 30 1126 29 1066 40 1509 37 1210 36 1626 39 1566 38 1255 34 765 33 849
866 -0.99732743389762923 -0.53019024115822178 19.566172645916396 95 112 114 0.34491556753236785 30 491 39 1234 29 1074 40 1492 28 1201 27 1041 31 1091 37 1197 36 1321 38 1578 26 1359 25 1109 32 1328
867 -4.9241964976415726 -0.35317065964176314 19.444773518569544 70 62 56 0.53246389343722011 30 511 29 1083 40 1865 28 1670 27 1044 37 1205
1170 -4.5871391614544086 -5.5061719674361935 18.385391879048722 143 143 143 0.57136048358485436 29 107 40 348 37 247 21 1383
868 1.1466741856652638 -0.39306723392863185 22.451173816269396 94 79 78 0.63999401367338948 30 1137 29 1084 37 1214 31 1100 36 1328 32 1330 35 1006 34 969
1687 -6.0262519962923076 1.0219789711518843 19.447421208461357 115 135 81 0.27135713939822426 39 705 27 498 37 696 36 843 21 1641
870 -1.2908462998420656 -0.029366248020455725 19.548963938175817 76 162 144 0.95314360521886532 30 531 29 1096 40 1519 28 1231 27 1076 37 609 36 777 38 1268 21 1591 25 1127 22 1894
1681 -4.453730817661449 0.23408047932014187 19.66840138305 121 113 90 1.29557826115081 28 515 27 446 21 1224
871 -1.1845052656637061 0.30817059728207724 19.575290130790293 192 218 181 1.0658903664113899 39 1276 29 1109 28 1691 39 1572 27 1465 31 1674 38 1799 26 1606 25 1138 32 1506 35 1318
872 -3.8389416793744768 0.3762047348932317 19.963917748009877 63 82 87 0.26179053997490703 30 564 29 1115 40 1534 28 1692
874 -0.21520968254153372 0.76338127153323132 20.497263207617447 113 122 115 0.583605208012836 39 712 29 1127 40 852 31 556 34 413
875 -0.60418659834708666 1.0485066168368176 19.774887030740679 81 90 98 0.66479813261244158 39 1309 29 1134 40 1911 28 1714 37 1543 31 1472 38 1811 26 1618 25 1355 22 1923 32 1517
1178 -0.59448761180754173 -4.5327005148084805 19.511994585105427 144 136 144 0.81692263203324733 39 328 40 450 27 829 31 258 38 423 26 1729 25 1444 32 327
876 -6.1187052207057331 1.0376039558564367 19.473968105080424 220 241 202 0.51618436225899877 30 1185 29 1135 27 1491 37 1266
1695 -0.083669091987338823 1.8341478001716369 19.897706844510221 115 115 104 0.66912978175771554 28 1333 29 1167 27 550 26 1072 25 903
878 -0.49508077064420775 1.1400709775446916 19.861375868274383 250 244 248 0.86811413011936711 30 1488 29 1137 40 1913
1689 -2.1933340743260965 1.12447814246649 19.634713142043864 255 254 254 0.4320682972929128 28 565 27 505 26 1040
879 -1.0466407159351234 1.3609751171475108 19.750785868869315 160 220 255 0.24912967911413161 30 636 29 1147 40 890 31 597
880 -4.3880611290696452 1.3741379458388148 19.642183824438419 182 171 79 0.72166616431580755 30 1197 29 1150 40 1571 28 1307 27 1135 37 1285
882 -4.4033183940476928 1.4598075590686732 19.535286475325915 65 65 67 0.68466910217980326 39 738 29 1153 40 1580 27 1140 37 719
883 -2.5870081298000391 1.5292763118562451 19.68384744255086 88 97 106 1.4915509395537285 30 645 29 1154 40 903
884 -4.3988090433802256 1.5455995881881011 19.534425550741652 167 180 171 0.58139821253816504 30 644 29 1155 40 1583 28 1725 27 1143 37 724 36 865 21 1944 22 2096
1767 4.6527962840443795 4.8723034831648331 8.0756396104888637 217 222 215 1.3902680165344334 28 1465 27 1582 26 1185 25 993
886 -0.58943143127474507 1.7894747208382629 19.87517357040301 71 81 79 0.39507130044505101 39 1334 29 1164 27 1155 37 1301
1761 -4.96056857940642 1.6392749781772211 19.534429073135883 82 89 87 0.50475782660154167 29 1159 27 1506 21 1951
887 -0.59559783225766116 1.7963679985281495 19.898456059255491 71 81 79 0.51196098418721736 39 1335 29 1165 40 927 37 1300
888 -4.4626124998550116 1.7803199045813634 19.537185617050067 86 75 83 0.66447223858760218 30 1207 29 1170 40 1930 28 1735 37 1299 36 882 21 1678
890 -5.2019905667169883 1.9488691889473377 19.518516214872498 174 152 149 0.32795176252010161 30 1215 29 1175 40 1933 28 1748 27 1516 37 1309 36 1432 21 1960
891 -5.2033902823866098 1.9484468950071943 19.520302400488543 174 152 149 0.27755938817267312 30 1216 29 1176 40 1934 28 1749 37 1310 36 1433 21 1961
1258 14.375042297329831 -8.9727031686826102 20.297590894479534 111 106 103 1.8701411433537578 29 868 40 1288 37 976
892 -4.1243164932526959 2.0114714189006362 19.588643765284875 86 94 81 0.3797021751664808 30 1220 29 1178 28 1752 27 1520 37 1311 36 1435
1775 -1.2109776193135384 -0.62682540558122424 19.522134952559878 162 192 194 0.32507632889727206 28 1949 27 1688 21 1869 26 1586 25 1319 22 2054
894 -4.7876222147745144 2.0744108043601943 19.547077075762644 42 54 60 0.40913085919757014 30 683 29 1182 40 1936 28 1753 27 1522 37 1313 36 894 21 1962
1769 0.64092711920647871 5.2089501260199675 8.1982077166431484 128 95 54 0.80459220170165013 24 875 27 1591 26 1506
895 -5.6636836363932144 2.1662908191293737 19.530792392274599 108 120 117 0.29659349984835315 30 1224 29 1184 40 1940 27 1169
897 -4.8513009652648202 2.3967587853184287 19.638552331835253 87 104 99 0.79248447235665287 30 1229 29 1190 21 2129
898 14.168257374885135 -9.7427824650764805 22.078572363710641 113 108 112 0.015138090540754347 30 1308 29 1262
1043 9.4534065302680439 -2.4698767167673368 23.104088127235137 108 104 82 1.3537328586266613 39 1174 24 453 23 407 36 588 38 536 32 407 35 538 33 400
899 -0.53360134364425926 -5.400456148072136 18.534356761397099 122 72 74 0.30994354985914346 30 1318 29 1273 21 1755
901 -5.511770487762119 -5.0452107426812862 18.399121138035262 120 83 34 0.56973300404725224 39 1073 29 1279 37 1013 40 1754 21 1743
902 -4.5709751240935441 -4.614449547757391 19.861360180535407 148 123 92 0.51784064793801676 39 1452 29 1288 36 1544
903 -6.1310962892234793 -3.6985572037035173 19.455043031093567 168 191 184 1.128433344702078 39 1136 29 1312 27 1828 36 1232 21 2025
905 -4.3301306676890094 -3.5438734704182804 19.105620769314029 93 89 88 0.63624729609809449 39 1475 29 1317 37 1656 21 1784 27 1626
1566 3.4576186053913345 -1.5653045554604783 20.969429377094155 67 73 75 0.80922953319819202 39 1517 28 1626 37 1477 36 1273 38 1552 40 1830 35 940 34 949 33 1185
906 -2.1561211698900826 -3.3337194365004623 20.505283072403508 235 220 87 0.2825348081632798 30 1370 29 1322 40 1805 36 1244
1051 11.371796364344537 -2.0656106644914192 23.332929181960445 111 138 111 0.12814070255225649 24 21 23 24 26 188
907 -0.4215440018082981 -2.9702206867529442 19.623099027302999 255 255 255 0.57096708940363738 30 1039 39 1486 29 1324 40 1420 28 1089 27 1364 37 1450 31 1375 36 1566 38 1167 21 1802 25 1290 22 1815 32 1284 35 921
909 -2.2079264992598819 -2.3691171592042872 18.881175111217431 206 224 224 0.44777993318972786 39 1160 29 1333 37 1457 36 1572
910 0.6883444654795241 -2.035738747718967 22.732431767272448 170 172 186 0.61245807917209583 39 1511 29 1344 40 1823 37 1469 31 1637 36 1582 32 1474 35 1289 34 1064
911 11.389702219530443 -1.7070660597043366 23.399223900079985 165 191 154 1.38413086364591 30 1645 29 1348 40 1836 28 1154 27 997 37 1838 39 1935 31 1639 38 1761 26 209 25 211 32 1599 35 1468 34 1144 33 1181
1564 -4.1240967334380043 -1.4158334278861493 19.38344920408101 87 80 80 0.19454552256229113 30 1067 28 1620 27 1387 36 1280 22 2034
913 11.293671299615289 -1.4440710923342481 23.535029544804299 104 136 120 0.90031623810099592 39 1729 29 1358 28 1641 27 1420 26 1338 25 1085 33 827
1638 10.175615603956199 -1.7072507062994122 22.974372191548046 98 90 64 0.58719383690620697 24 34 23 427 28 369 30 1073 39 1531 29 1015 40 1460 27 314 37 1128 31 1022 36 1584 38 1199 21 407 32 1028 35 937 34 733 33 820
914 13.609190211729015 -1.3275220010972824 23.630455053891769 185 183 149 0.86911970131633076 30 1415 29 1361 40 713 28 1182 27 1030 37 1490 31 1045 36 1597 38 611 26 952 25 1089 32 1044 35 951 34 742 33 829
1123 4.1325169242367599 -1.3274893339989262 20.825781171794471 162 169 164 0.65321594628251556 24 948 23 854 25 779
915 12.844157618853439 -1.1094463800163967 23.082117296522988 61 59 57 0.92625203712657866 30 1424 29 1364 24 955 23 863 40 729 28 1192 27 1444 37 1497 31 1408 36 1605 38 1236 21 2069 26 1350 25 1095 22 1848 32 1055 35 969 34 752 33 839
917 3.8646298345771632 -0.57428844638174292 22.235874728446355 65 67 62 1.154788446151866 30 1442 29 1383 28 1957 27 1888 26 1774 25 1487 22 2182
918 -1.1591445681600778 -0.35739907958273487 19.565063957723961 88 104 104 0.69650691217906824 30 1444 29 1389 40 1871 28 1673 21 1881 22 2061
919 -1.9110242972296427 -0.24800764095517139 19.497059204641797 244 225 92 0.74535804064943312 30 1445 29 1396 40 2111 28 1677 27 1453 25 1116
1636 1.3893874790983509 0.26590843773197564 19.724763748163991 174 176 172 0.79668001516774345 29 2060 28 2588 26 2224 25 1955
921 -0.87577940911225793 0.11743835306465768 19.512073092136749 166 182 185 1.0674760163336714 39 1267 29 1403 40 1877 28 1687
1646 -0.36086990487594645 -4.8966520892389385 18.134946925059992 21 30 46 1.6167159182013062 39 293 27 13 35 886
923 -5.2796942646723801 0.1924215832966947 19.80324847597829 65 77 83 0.43142175836134272 39 1263 29 1407 40 2117 27 1890 28 2136 37 1518
925 -0.53748418764212991 0.67022716333142673 20.369826535170347 119 121 121 1.1089694088633111 30 1472 29 1420 40 2122 30 1683 37 1861 31 1815 36 1814
926 -0.42192531963011271 0.77851792239461681 20.675509276439129 171 183 153 0.69593694224550728 39 1756 29 1423 31 1680 36 1648
927 -2.1491257871003153 0.98745876953138501 19.824537117590587 142 135 138 0.94013344066113314 30 1486 29 1428 40 1908 28 1982 27 1490 25 1352
1644 -0.62775486059982488 -5.0721104907939152 18.509796976667577 115 122 123 0.33964986549879084 28 111 27 8 31 219 38 383 21 103 22 250 32 290 35 452
930 -0.35369263794889877 1.30949512701096 19.973894285063125 211 210 210 0.50214965572414461 39 1319 29 1435 40 1564 28 1718 31 1481 25 891
1075 23.586704618256856 -2.8153347266284494 12.011916010843896 145 157 180 0.87449612159793511 24 454 23 411 26 144 32 996 34 303 33 390
1234 -0.84055359325292267 0.27792608380819001 19.454244012694048 159 168 163 0.098029953324046848 39 679 40 818 37 639
3127 15.786730008042669 2.0613652655506223 10.651866185493089 88 89 92 0.58947341497428229 32 1822 34 1325 33 1316
934 -3.9721091397995307 1.6872438959823537 19.495148932392315 95 104 100 0.73710341726411044 30 1502 29 1444 28 1998 27 1750 37 1555 36 1664 21 2120 22 2209
1745 -0.83217386559059792 -4.9889931448324312 18.539811210238831 19 24 29 0.28017754197335137 40 1336 27 1317 37 1025
935 -3.8533990703594987 1.7310605242260311 19.512093930123832 186 201 185 0.39655312865084591 30 1204 29 1447 28 1731 27 1510 37 1556 36 1666 21 1674 22 1951
938 -5.8168209006825897 2.0384794939896524 19.408019694753985 131 139 98 0.83063399751746037 30 1510 29 1454 27 1753 37 1563 36 1671
939 -4.9397020673584962 2.2671343956321115 19.569213749741483 74 86 83 0.25437890480389952 30 1514 29 1459 27 1524
1242 -1.8316458732512544 1.4593640664965575 19.641666669782158 212 223 224 1.1928592194737433 39 750 40 900 37 718 31 612 38 748 26 400
942 -5.9129663268701993 2.9102013782627605 18.997533401908527 76 80 78 0.35664202657694705 30 1236 29 1464 27 1531
1753 11.671977379224137 -1.4171779123055039 23.637515300233705 97 102 94 0.42646446699823154 28 1643 27 1424 26 1342 25 792 24 479
943 -4.5137195561799031 3.5291265792221327 19.218289063019625 188 140 113 0.62271838979610372 30 1523 29 1469 40 1953 28 1777 27 1543 36 1452 21 1986
1596 -4.3004279253149909 -0.31979872561905454 19.428498642628224 176 174 138 0.19971557241717078 40 2106 28 1959 27 1702
944 0.31884427085298411 3.8949582749171561 19.806860934439118 180 182 177 0.65611945877019151 39 1619 29 1471 40 1954 28 1382 26 1114 25 953
945 0.31884427085298411 3.8949582749171561 19.806860934439118 180 182 177 0.65611945877019151 39 1618 29 1472 40 1955 28 1381 26 1113 25 954
1542 13.421524858995843 2.3745675133630733 9.104782228328812 197 200 209 1.8476648617300668 40 1623 28 1372 31 653 38 1638
1027 11.868673303782494 -6.0166357888093591 23.103873302802683 64 39 23 1.5997458281018742 30 2117 29 2082 40 2628 28 2619 27 2337 37 2140 31 2120 36 2161 38 2248 21 2594 26 2215 25 1941 22 2469 32 1883 35 1614 34 1386 33 1385
946 11.20248790591025 4.2030277429450633 12.59123189493619 91 77 66 1.1221874451528366 30 1540 29 1484 40 1975 37 1600 31 714 38 875 32 1386 33 575
947 0.57209217109834598 -8.7250081605990637 20.385883344212019 161 166 162 1.478202736969098 39 1654 29 1529 31 1748 22 1977 21 2157 32 1570 35 1255
949 -5.2392702832646281 -5.3340473209870343 18.393693309342062 96 97 89 0.29772021048818892 39 1432 29 1537 37 1621 21 2161
950 -0.76884856672877033 -5.3965546390974453 18.488450776096343 111 66 67 0.57495612430730958 39 1663 29 1540 40 2027 28 2080 37 1625 31 1756 36 1525 38 1711 21 2008 22 1988 35 1377
951 2.3312464367872314 -1.0006603911902239 3.1967538237022102 106 85 72 0.0020592956500698149 30 1591 29 1546
1540 -5.3871566957169117 1.9603676149650997 19.540072092091719 118 121 116 0.55947691293111124 30 1218 39 772 28 1349 37 1308 40 1609 36 1431 21 1686
953 -0.68595433480473345 -3.4021020542170644 19.894625217133473 222 236 247 0.48758201044689392 30 1622 29 1565 40 2057 28 2098 27 1846 37 1667 31 1774 36 1747 21 2192 26 1873 25 1579 22 2156
1550 11.206841718798175 4.5384044573706595 10.244856409184173 95 85 79 0.54580500878252958 40 1674 28 1440 31 1256 38 1406 32 1190 34 861 33 920
954 -5.7230829099729403 -2.6125563844717368 18.704474757624787 152 160 153 0.950339346472441 39 1699 29 1574 40 2237 37 1821
1035 -1.0955346940267905 -2.5942406341924924 18.990489458419553 186 209 218 1.0598649396156428 30 2163 29 2130
955 -5.6880483645351267 -2.3290767491415036 18.623375931271145 152 172 169 0.46008801629888091 39 1493 29 1578 36 1761
957 -5.7945066856887451 -2.1961344624003374 19.649774314057261 98 101 109 1.3497130843102252 39 1496 29 1582 37 1827
958 -0.96604117737413531 -1.8083445213641463 19.317794302398859 190 201 208 0.72349748288660265 30 1637 29 1592 40 2075 27 1664 37 1685 22 2027 35 1288
959 -0.65108700804690955 -0.91197825867049531 19.522705855014436 229 229 230 0.793731167435484 39 1541 29 1606 37 1703 36 1792 35 1414
2343 -1.3824198885746228 -0.44979629651462455 19.550792622814782 131 215 199 0.19680275285680393 40 752 38 646 25 836 26 264
961 -1.7210861731185969 -0.61796187924151258 19.533979343115146 186 201 206 0.76722983612651763 39 1731 29 1616 40 2095 37 1504 31 1666 36 1625 38 1783 26 1764
1622 16.180194080337831 2.2575342644334619 11.395556499444192 47 55 62 1.2359424113204442 40 2395 28 2291 38 2105
962 -0.81141161578045429 0.53486529842959252 19.715522274593507 205 222 225 0.33709795736074666 39 1575 29 1624 31 1813 36 1809 26 1786
1107 12.641400693716175 -1.0828875922771124 23.597933013451605 44 40 30 0.56843858478288745 24 956 23 691 22 1233 21 1144
963 -4.000203981594991 0.61651864090108666 19.661746865651743 56 82 109 1.4319885806466455 39 1749 29 1626 40 2282 28 1970 27 1726 37 1728 36 1811
965 -5.6774745557033697 0.88309622180593939 19.981109800550236 111 131 111 0.83023378491290734 30 1686 29 1636 27 1901
2340 -1.5166891917396426 -0.99114807623927481 19.41300621178155 95 133 125 0.21332398852790371 31 461 38 589 26 210 25 228
966 -4.7832700778652377 1.4398738051394537 19.538341953151001 56 67 66 0.28635210499409991 30 1693 29 1642 40 2292 37 1742
967 -4.4796544199460095 1.4416729107963193 19.562476133834632 68 65 56 0.47648182178534515 30 1694 29 1643 28 2155 27 1905 36 1823
1317 -2.4612626992252746 -1.2997046272133903 20.687508007349717 160 166 187 0.50090328755456792 30 1411 39 1520 40 1833 31 1882 37 1839 36 1898 38 1929
1620 -2.1920933148168551 -1.9831328819510119 18.898778540928731 186 206 210 0.67167297603226228 30 1777 39 1709 28 2257 27 1987 37 1829 31 1878 36 1889 22 2270
969 -3.8819409357309227 1.5907964943069324 19.547116024975139 189 207 204 0.47695860823846964 30 1696 29 1645 28 2157 27 1747 37 1745 36 1827 22 2208 21 2119
1630 -3.6726955444261331 1.9955299684620238 19.459796888239506 59 63 65 0.90933294395340647 29 1777 28 2386 27 2042
2344 -0.65799378308469969 0.014537329538748213 19.845225245820185 62 70 67 0.48046092132404694 31 525 38 676 32 541 35 676
970 -6.0712826194401019 1.9112907876833543 19.958593981804853 185 189 136 1.4921616889621341 30 1702 29 1648 37 1749
1115 4.9263076156608481 5.39356433121708 5.8041269350253124 158 150 139 1.3743397548114893 24 1031 23 761
971 -4.8460624227723708 3.3794620810211238 19.2032714973388 162 167 154 0.43661705377570198 30 1706 29 1659 40 2307 28 2177 27 1763 21 2294
2339 -1.1992111932239837 -1.133933944005302 19.973992054282487 56 63 86 1.8437702688192394 31 1055 38 584 39 525 32 1067
973 0.87192315515242158 -5.5307626169276451 20.693901642948795 128 93 72 1.0714749318383026 39 1805 29 1718 28 2083 31 1759 36 1730 34 1134
974 -5.7231324661654748 -3.5713380322554671 19.379147577524183 98 87 87 0.14088466808837669 39 1690 29 1726 37 1815 36 1880
975 -1.2993876011542955 -2.7347390256039046 19.204238307045372 205 216 230 1.1085169820541811 30 1771 29 1735 40 2238 27 1982 37 1822 31 1873 26 1880 25 1583
1628 17.926801606148022 2.4034873935265408 22.075909489739942 150 156 147 0.84652674009303386 40 2488 28 2381 31 1984
2359 13.021072907658535 4.6119180820690975 7.5803312628692288 95 96 102 1.1188482187144715 31 777 38 942 32 741
977 -5.9858188408880997 -2.5947085895772428 18.768323603022083 156 168 164 0.90586917768430697 39 1698 29 1737 36 1757
1702 -3.569814745636104 2.6542688920792399 19.248251300652928 118 118 112 0.54694992734275827 28 697 27 605 37 775 36 908 21 1321 22 1420
978 -2.2291307886284399 -2.2815659171736096 18.811905293274126 207 221 222 0.48319077899881596 39 1707 29 1742 40 2242 28 2255 27 1859 37 1825 31 1877 36 1887 38 2006 22 2268
1187 -0.58851241147808619 -3.9149167577513486 19.342366555932099 170 134 137 0.95808030446456582 29 221 39 395 40 508 28 194 27 116 37 345 38 461 26 833 25 55
979 11.083434936265398 -1.8009406645242474 23.852826017222498 124 127 117 0.78805691292601598 30 1784 29 1749 40 2249 28 1633 37 1836 31 1790 36 1975 38 1933 26 920 25 204 32 1597 35 1467 34 1223 33 1240
981 -1.3681617283420271 -0.36074089213525307 19.720881808263922 179 247 239 0.98461829033951853 39 1855 29 1760 27 2012 37 1851 31 1886 36 1913
2356 15.4358840787223 4.2785833760287817 9.8862761625226856 106 108 109 0.34561086345187364 31 725 38 888 32 684 34 503
982 -0.33740041113487246 0.48009393428678904 20.017270427347029 221 231 237 0.79509245960448127 39 1864 29 1767 40 2280 28 2142 27 1895 37 1942 31 1890 38 1955 21 2254 26 1900 25 1603 22 2295 25 1695
983 -3.6178460137228527 1.005072637114417 19.472661835186294 175 188 181 2.0916827212622335 30 1813 29 1773 40 2290 28 2373 27 2125
1333 -0.17229294378329424 1.9239167065926357 19.916531870280494 241 242 242 0.45594737957177212 29 1451 40 1931 28 1736 25 1514
1700 -4.6153514710858294 2.3878095809826845 19.487985753987058 146 148 144 0.53733214110826066 30 697 27 591 36 901
985 -0.15912929411084503 2.3940572682213626 19.336344975240458 163 161 158 0.70547354565587483 30 1825 29 1782 28 2168 21 2281 26 1918 25 1619 22 2213
1710 -5.7653712796876802 -3.8391092253366956 19.561004213883571 71 83 87 0.50001802450332411 30 286 39 400 27 836 37 340
2360 13.021072907658535 4.6119180820690975 7.5803312628692288 95 96 102 1.1188482187144715 31 776 38 943 32 740
986 0.064874402689062305 3.9508384254858404 19.886909256250746 12 11 5 1.2446827316353517 39 1883 29 1785 40 2402 28 2181 21 2288 26 1928 25 1638 22 2221
1195 -1.4293983213094743 -1.9383646036179911 19.699620491460522 114 124 135 0.62661906720195215 30 372 39 458 40 589 28 293 37 440 31 1015 38 1181
987 4.6174582787027481 2.9722508860342245 6.0531413800802714 219 229 231 0.85460291564536339 30 1930 29 1792 40 2412 31 2001
2355 12.53723626867677 3.9139114651576858 11.797050509576993 163 168 162 1.5614639399748089 37 1599 38 861 32 664
989 -0.42183769751551037 -2.8876168159422475 19.57619571926157 226 229 239 0.69248168389835785 30 1877 29 1822 28 2346 27 2093 26 2043 25 1762
990 -4.6582701394460306 -2.6587871733225867 19.776433243702176 111 105 75 1.5364208924168359 30 1878 29 1823 40 2450
991 -4.7022647409736722 -1.2662743664249596 19.449241818828728 153 176 168 1.0038195727243111 30 1892 29 1835 40 2363 28 2351 27 2101 37 1925 36 1980 21 2435
1341 -1.1342679007495307 -1.8026820997113662 19.30655823249942 147 178 201 0.71961979550918409 29 1591 40 2074 28 1920 27 1663 31 1635 38 1922 26 1748 22 2026 21 2054 32 1596 35 1287
1708 -2.3993533428090874 -4.3244152448308419 19.194386308512851 215 223 243 0.42790145439636307 30 231 40 449 27 826 37 306 38 419
993 17.311893870594766 -1.4037491918424696 23.239096098224802 37 48 33 1.0453255640663861 30 1895 29 1837 24 1301 23 1139 28 2119 40 2090 27 1879 37 1932 31 1794 38 1766 21 2351 26 1757 25 1476 22 2173 32 1604 35 1403 34 1148 33 1183
1654 -0.27848716542335783 -3.371115349845208 19.875282260372018 240 250 255 0.5223689332301984 28 235 27 163 31 317 38 490 21 259 26 866 25 112 26 101 22 409 22 1132 32 374
994 12.430830223621196 -1.3636957045235514 23.697639347768376 161 163 158 1.0187190848964387 30 1896 29 1840 37 1931 31 1881 36 1981 38 1940 32 1605
995 -1.7576500558319283 -0.91114806095598888 19.427823225926286 139 194 246 0.76839328374562554 39 1838 29 1843 40 2366 28 2267 27 1997 27 1998 37 1930 31 1970 36 1985 26 1979 25 1683 25 1684 21 2229 22 2280
997 -0.77655435292144714 -0.4354178953241114 19.716790284180878 132 148 146 1.3870608836018492 39 1946 29 1850 28 2363 27 2117 37 1938 38 2090 26 2050 25 1768 32 1760 35 1519
998 -1.0125034463585769 0.33111976219982397 19.688546955267554 190 202 203 1.7619913855102727 30 1905 29 1855 40 2472 31 1976 36 2056 26 1984
999 -5.3542498604217128 0.90085151150410003 19.748302717775363 60 73 77 1.6350818172162962 39 1866 29 1857 40 2478 36 1930
1652 14.006967946365242 -5.284943447026615 22.819265807707175 109 99 100 0.16770174513199076 27 153 38 484
1001 -4.682300272363908 4.3500266444082945 19.119113438935223 95 61 26 0.73544297533505087 30 1920 29 1875 27 2049
1662 -3.9349101492929783 -1.780714624741218 19.38062492475024 210 216 218 0.21738279158684881 28 290 27 223 21 1080 22 1566
1002 2.205425471465738 4.8876967738429453 10.011697010564204 112 83 52 1.4778231959874055 30 1932 29 1884 26 1833 27 1938 25 1547
1147 1.0144032946478403 5.2527257328834169 7.6700020512019575 63 29 0 2.097667942537679 24 1227 23 1198 25 1563
1003 18.076317909144276 -6.0292746199840748 22.602645626873691 110 111 107 0.72780526415367064 30 1945 29 1893 28 2341 37 2036 25 1671 33 1267
1005 -5.4411986952350286 -0.47605760206463521 19.414741720308434 132 149 139 0.51371924795168533 39 1943 29 1915 40 2527 27 2113 37 1993 36 1993
1006 -5.4411986952350286 -0.47605760206463521 19.414741720308434 132 149 139 0.51371924795168533 39 1944 29 1916 40 2526 27 2114 37 1994 36 1994
1007 -1.7736413211797784 -0.40214170497981611 19.758379288872582 76 84 88 1.6616701067901958 30 1973 29 1917 25 1769 22 2287 21 2364
1660 -4.1459083424653755 -1.9333763329349369 19.360460976228605 107 81 78 0.27158526674801681 29 332 27 212 36 611
1009 -4.3768617438806361 -0.20837410823699085 19.493974876958816 178 181 146 0.55180881330911213 30 1975 29 1920 40 2529 28 2435 27 2200 37 1998 36 2054 21 2490
1606 -1.481849913188928 -2.7660890164457075 19.50719551638359 202 219 237 0.94608556653336762 39 1705 28 2102 27 1856 21 2199
1010 -1.2532858328027494 0.48651147742396195 19.592533288837036 176 157 119 0.93710999042501031 39 2015 29 1924 40 2473 27 2122 37 2003 31 2023 36 2058 38 2142
1091 4.4328002033517171 5.0289460628876812 8.1809677308981552 84 57 31 0.66226905719759421 24 591 23 536 28 1848 27 1585 25 997
1011 -1.2568784539136744 0.48623002486110167 19.561150790548439 176 157 119 0.64587195326288005 39 2016 29 1925 27 2121 37 2004 38 2141
1013 -4.410879095421179 0.7263397602018713 19.739650475450119 172 176 171 1.0241935114841361 30 1981 29 1927 37 2059 21 2495
3143 14.040580869061017 1.813730858422866 11.090533392277196 156 89 59 1.4689181425680109 31 2029 38 2149 32 1804 33 1313 35 1580 34 1309
1014 -4.410879095421179 0.72633976020187119 19.739650475450119 172 176 171 1.0241935114841361 30 1980 29 1928 37 2060 21 2496
1015 -3.9336013631259639 1.3133777203852248 19.640497752079714 50 60 66 0.36224410549813707 30 1986 29 1932 27 2213 37 2015
1604 -0.90655146472554771 -4.8141297640953038 19.799907867279515 161 112 77 0.065978943769951975 30 1596 28 2087 31 1762
1017 6.2525326315773881 0.80534980172694015 8.4240169129649143 159 165 162 1.6145471907116513 30 2055 29 1988 37 2087 31 2025
1614 -3.5369929729537888 2.5059915262886046 19.242577264678548 12 15 17 0.66303073741065988 29 1656 28 2169 27 1911 37 1756 36 1934
1018 -4.9396299763639115 -5.2352102249091867 20.739122513451097 8 12 16 0.14428124745204535 29 2007 37 2034
1099 22.619566474289748 -2.5532826302036353 19.872727962907835 101 110 112 0.90810282724087765 24 735 23 674 22 1562
1019 17.807366738444632 -5.4846469957601585 23.577827571886967 113 107 104 1.8330226455702763 29 2010 40 2518 28 2425 27 2249 31 2012 30 2046 38 2127 21 2525 26 2042 25 1761 34 1291 33 1304
1021 -5.3605524601588295 1.5579401160151001 19.747184379808637 61 77 82 1.0951149367700432 30 2053 29 2022 27 2292 21 2561
1022 -6.4337238850855369 -8.8578341687720297 15.783631851204454 5 10 10 0.4188067556271009 30 2088 29 2052
1612 7.7884920565433342 -0.90368819105086928 23.571984745545979 157 151 144 0.4903051353502047 40 2100 28 2127 32 1691 35 1475 34 1226
1025 0.1833401294004533 -4.9634037922965231 19.137114887375308 14 23 34 1.4143625996350795 39 2136 29 2080 28 2615 37 2166 36 2181
1968 -2.2383125056318458 -1.0963255282763926 19.92188299741608 241 251 253 1.5207456458722615 30 1654 37 1696 31 1648 36 1604
1029 4.3525796132811845 -1.3029022118291753 20.635686429853784 184 188 182 1.877140768555267 39 2140 28 2622 27 2340 38 2252 26 2220 25 1946
1972 -0.6165557229691947 2.9859671528608382 9.3630902107090179 112 115 115 1.2032602241407264 40 2405 37 1776
2491 9.6308916843192147 -2.3577366449066579 23.08058074285816 222 224 189 0.36661661257850814 23 661 21 1082 22 1171
1032 2.7062630149766567 -1.1031433879696555 21.430307360503786 99 108 110 1.4843170924534217 39 2175 29 2116 40 2695 37 2175 31 2174 36 2193 38 2284 32 1926
1033 2.3489633373702699 -2.5434762807872504 16.658523629981421 178 178 173 1.9607197295810248 29 2119 37 2181 31 2170
1976 -3.7414664481839672 -1.4415372961166266 19.095237053145834 190 195 186 0.47727187438854274 30 1783 39 1830 37 1833 36 1782
1037 13.73249080871825 -9.7122139168868173 23.667835811370786 159 164 165 0.85140823056078718 29 2134 37 2195 33 1456
1980 -5.718852484108603 0.70654970833257735 20.134712901712774 127 135 114 1.3332709061420451 39 1862 40 2381 37 1860 36 1921
1039 3.1600368285891252 -8.1878728700586976 20.123496522085045 171 173 168 2.4755349853729687 29 2133 40 2712 37 2194 39 2183 36 2203 38 2305
1040 11.237961927752226 -2.3048777504254727 23.617922146275522 141 149 148 0.11751480527353804 39 478 24 14 37 451
1041 12.074765271348459 -2.0957289504449919 23.632600163092587 150 158 163 0.76766148412168489 39 500 24 22 27 288 36 612
1920 2.3246545609912985 -1.5108927755924251 20.826911312844903 98 110 107 0.56304295791131354 40 633 37 1123 39 495 31 1028 38 1554 34 952
2445 0.29065849980645547 -0.48920290311457099 19.277744129642446 44 51 44 1.144072328726941 36 1992 38 2088 32 1759 34 1300
1042 11.865254770526903 -1.2820572642241841 23.718916857591431 91 98 87 0.7434449119149491 39 597 24 51 40 712 25 241
1045 18.263082313161053 -1.0148249494878379 21.825434851564509 51 42 38 1.0921370567924993 30 1106 24 493 23 65 40 738 28 438 31 438 38 1238 21 1140
1924 2.3576215338882203 -0.98422285830865741 20.893901095229779 97 106 112 1.3006601619419313 30 1421 39 571 40 701 37 1166 31 1062 38 613 32 1486 35 1167
2950 21.661333306203179 -9.5346970002931037 10.324112891468234 124 128 129 0.066527760542262782 32 32 35 821
1047 10.099276435080039 -2.5608929437035646 23.273242954427143 149 151 148 0.55859129230425897 39 1171 24 724 23 405 22 460
2443 22.879987306571365 -8.6838355476194575 14.435830698674319 36 46 59 0.39518283985089275 31 1945 38 2063 32 1740 35 1501 34 1254 33 1232
1048 11.966552877422819 -1.609824517843395 23.609663174426856 110 116 114 1.0559680526542634 30 1406 39 1542 24 752 23 433 40 1473 28 1159 27 1003 37 1483 31 1030 36 639 39 552 38 1562 21 1117 26 932 25 784 22 519
1050 10.041358233721525 -2.3561361519614326 23.188634937978261 132 114 65 1.1924592510199434 30 1882 24 1291 39 1997 23 1132 40 2361 28 2111 27 1991 31 1879 36 2035 38 2013 21 2213 26 1887 22 2029 32 1685 35 1513 34 1217 33 1270
1052 9.5125147427121419 -1.7700535018219932 22.873778289869552 173 159 85 0.30039732815515363 24 473 23 29 21 399
1932 -0.57610931557966882 0.81031360608988157 19.930935317344076 191 203 200 0.59970763140513816 39 714 37 1258 31 1140 38 1608 32 1345
1054 9.8527664496023952 -1.7675174602704069 22.914561005981025 155 138 136 0.37458550007629288 39 521 23 31 36 629 33 411
1055 9.4887147889133132 -1.3007642917363922 23.004071631092327 105 52 34 0.42454125315527524 30 422 39 583 23 50 28 401 27 349 36 663
1056 18.008854777450988 -1.5625733579481269 23.342387899357082 64 73 62 1.1121534081359628 29 375 23 51 40 685 28 402 27 1024 37 1146 31 403 38 594 21 422 22 520 34 332
1057 18.22385441152008 -1.5473977457988937 23.222034777534947 73 74 62 1.6133286992724791 24 483 23 52 38 595 40 686 34 333
1872 10.793262484389849 -1.7627111741741162 23.582741488562849 200 208 187 0.55569088065370842 39 531 37 477 35 568
2764 -1.7667530722501328 4.3736245056800502 19.718016036681338 91 79 63 1.276584394183131 21 2298 25 1650 22 2231
2397 6.3636170984061824 -5.0596065352767052 21.544067270045012 62 34 19 1.2012444068332007 36 1200 40 482 38 1502 21 194 39 1098 26 1283 35 477 34 280 33 365
1058 8.7388447926846737 -0.99972819368681143 22.261200655184972 83 75 46 1.3708692826362341 24 63 23 58 36 687
2902 -0.0027529319504880079 -3.1878020262839324 18.629709458683376 161 169 176 1.2107193264005094 40 2446 32 1747 35 1509
1063 4.9772114701973011 5.1854703879976531 5.7794980997355276 153 152 155 0.59684727361957968 24 273 23 232 25 639
2395 15.505817992916183 -6.6515058987104174 24.144510376025227 103 89 60 1.5054802603220006 40 1368 38 1493 25 1048 33 790
1064 1.0786024969027879 4.9618288333786511 10.036607081389509 208 209 197 0.21093490972689746 24 285 23 241
2763 -0.061116645002902509 1.6770039009205935 19.772890501808206 107 151 114 0.44682589892833213 26 1911 25 1614 22 2307 21 2377
1065 0.6606874374741547 4.9928934008262988 9.9901521412275915 90 74 41 0.7891979064004796 24 299 23 244 27 753 28 1464 25 627
1066 0.45822602671275198 4.9569283351061593 10.066911100925941 118 92 71 0.65514348220567598 24 621 23 249
1071 0.20148056915493356 5.2929258387200342 7.4081932524830894 52 36 23 0.42853318553603431 24 656 23 315 28 1861 27 1305 26 1519 25 1024
1072 9.4410308621706864 -2.4780491997584453 23.078491274972379 140 123 90 0.75849735307432009 24 452 23 406 21 1078 22 465
1073 23.7598930143091 -2.9289403266505865 11.986069889746874 255 255 255 0.90315788802391672 24 450 23 409 26 888 25 732 32 995 34 929 33 808
1952 8.7039865428767662 -1.1440991996583623 23.171358766005543 152 153 143 0.90845212585715873 40 1854 37 1494 31 1409 38 1574 32 1313
2780 13.043717682452804 -4.1738539965516406 24.813657422347298 194 199 198 1.9935435797878949 26 2258 27 2382 25 2004 34 1428 33 1435
2477 -0.72097550363167151 -5.0719697765830505 18.486727887590135 175 177 173 0.1504435324665985 27 6 21 102 22 247
1074 23.786834529463874 -2.9131706473377217 11.784287010553522 255 255 255 0.9389681476377002 24 451 23 410 26 1302 25 733 32 1278 34 928 33 998
2982 -0.42618510391954312 0.37203412421488491 20.105984337609385 107 102 43 2.2540199746546792 31 541 35 687 29 548 36 808
1079 12.306140626624487 -1.794089804200113 23.363070223364698 104 107 104 0.43089980218344576 24 746 23 429 21 1532 25 773 22 1189
2475 22.208148453914518 -0.71245725785704295 20.057877130366244 206 216 224 2.000736591879571 40 2372 38 2018
1080 12.306140626624479 -1.794089804200113 23.363070223364691 104 107 104 0.43089980218344986 24 745 23 430 21 1533 25 772 22 1190
1081 12.53735312613939 -1.6638096874492585 23.494844357178486 89 95 88 0.81516036253512547 24 476 23 432 25 216
1960 16.949689888149614 -5.8697488102785229 23.465726830550395 65 34 29 1.1370899616031629 30 1597 40 1401 37 1642 31 1349 28 1576 38 1509 38 1733 32 1446 28 1897 35 1117 34 1055 33 993
1082 10.326179365620959 -1.2712461436430125 23.191872308088936 206 195 125 0.61721326306380375 24 49 23 435 27 354 28 1179 38 609 26 225 25 237 32 458 33 427
1087 10.835455671722562 -1.0350736245143208 23.515395736658075 172 177 173 0.52827020236730593 24 490 23 445 26 962 28 423 25 258 34 360 33 435
1088 4.047732957429016 -0.68043601891930594 21.138916979109016 92 97 107 0.50785407486732814 24 495 23 446 21 486 25 276
1089 4.060736939575281 -0.68430330493130631 21.165247379383661 92 97 107 0.83542554600115293 24 494 39 617 23 447 38 635 21 487 25 275 34 370 33 442
2032 -0.92134699197414527 -3.836908320151295 19.209259647923819 158 179 124 0.49126004457307793 30 285 31 302 32 368
2557 0.35939786155662673 5.2694847069407427 7.4055109586286028 182 186 178 0.67606850195568013 24 361 27 800 26 736 25 666
1090 -0.51017574368523244 2.5844231546522551 7.6553832139161209 106 113 105 1.6796209745347168 24 838 23 532 25 576 26 590
1093 0.91316750717623307 4.9913862897517465 10.038251790433506 88 70 39 0.48150710603272345 24 611 23 550 27 1283 28 1461 25 1003
2036 -1.4073994509849801 -2.6950258443206305 19.223993670899787 210 227 246 0.39938298654657245 28 258 31 342 26 1296 35 526
1095 0.15710625157293795 5.242396958106406 7.4852348587068214 80 57 14 1.0710470104606236 24 882 23 602 25 1262
2555 1.2670598353446181 5.2518033830469308 7.5153277918917016 84 58 48 0.65656642240838192 28 921 26 711 25 656
1096 11.316545646861282 -2.3529136528762127 23.5314448630313 42 75 40 0.53709145652556978 24 730 23 664 28 1121 27 955 21 1508 22 1172
1097 10.093702633700543 -2.171789614023897 22.977600103065015 134 127 100 0.83756314419121947 24 467 23 666 21 382 26 173 22 484
2040 -2.283735961949716 -2.1402145329591717 20.141549941967188 179 179 174 0.45221649035627426 37 428 31 367 36 597 38 524
1098 22.378692414817255 -2.5076807304168485 19.734056242888908 101 110 112 1.1815035450941969 24 734 23 673 28 1622 40 1820 27 1672 31 1380 38 1545 26 1311 25 748 22 1563 32 1289 35 926 34 720 33 813
1103 11.237297991632616 -1.6096827281990982 23.661441380341991 128 137 136 0.94074257815344797 24 949 23 682 25 1083 26 1575 22 1205
1825 -5.4610443562673812 -0.083578413353886716 19.477940106354442 135 149 148 1.9438990712386941 39 2010 27 2202 21 2492
1109 9.5506863021576738 -0.92213245956172851 22.861012740655831 163 158 115 0.4336351800694766 30 464 23 693 31 460
1988 -5.9799916846083701 -2.9341065193795046 18.807863550977984 117 118 114 1.5941216820971806 30 2016 37 2043 39 1993 36 2081
2855 15.805385406421847 2.7056479630814367 19.882325309116013 94 64 49 1.0566615077553867 29 672 33 476
1110 12.580850203390712 -0.68405214812779369 21.124754931454842 169 155 159 0.79370269718074671 24 772 23 695 37 1508 21 1167 22 1245 32 1069
2507 -4.9135069596097418 -5.0718520658835198 18.433771254107977 229 118 63 0.31597890292629094 30 954 37 1017 21 1747
1112 17.59271181841579 1.1533317250633757 11.621504859586398 245 255 255 0.17671574056230638 23 703 26 1023
1833 5.1666323439055253 -0.49447116182603323 20.686583371561515 178 178 173 0.8986833481941825 30 2091 27 2310 26 2195 25 1911
2338 0.40277846901926201 -1.242496895679716 19.141637174593104 103 100 100 0.16962542690592641 39 506 38 564
1117 0.85209129678704265 4.9535847761194738 10.056978000706801 196 204 192 0.45402323768320774 24 859 23 765 27 1578 28 1842 25 1239
1996 -6.0684895388367668 -8.5007412486315239 15.192279042174887 7 12 12 0.37185265926655092 39 2121 36 2132
1120 -0.85358367988369865 5.0937272114593055 9.8426469492116464 73 53 33 1.0061470082366675 24 878 23 793 25 646
1121 12.150885666547124 -2.7094539258946675 22.852883397138008 167 172 178 1.0840781211143944 24 944 23 849 21 1075 23 660
1936 -4.459550314605079 1.3866677796229383 19.867776441877098 178 160 97 0.54245715655486959 30 1198 40 1572 37 1286
2461 23.027090828143702 -7.1116997135363116 17.615010922942947 130 136 149 1.5811148655929479 31 2168 38 2291 22 2514
1122 10.227189172944861 -1.9162864741037233 23.075145410393127 209 204 130 0.916059259588478 24 1137 23 852 27 1675 28 1935 26 1571 25 1299 22 1577 21 1521
1127 13.468011986018706 2.3601806001450938 7.9008143712479466 170 122 128 0.41202146234997244 24 981 23 890 25 1519 26 1919
2459 -0.059920949883057156 -5.6403359508393853 22.03565396511577 76 64 64 1.9476376127182757 31 2158 38 2270
1128 1.0933173535312284 5.2082888318146985 7.7107713480712405 111 81 29 0.15448630213659034 24 874 23 943
1129 -2.022977794837105 5.3720228393322458 7.3106033479565111 95 66 33 1.7015883591092749 24 917 23 990
1944 17.953768275058966 -6.0839490361481676 24.41047828944297 34 29 26 0.98847185476629962 30 1598 37 1427 31 975 35 893
1130 9.3711138587902205 -2.0547167614618336 23.247137720725899 134 119 72 1.1348886409694992 24 1136 23 999 28 1625 40 1448 39 1188 27 1400 31 1387 26 1566 25 1076 25 1298 22 1573 32 1020
1133 18.022640362881749 1.444917041226224 10.926789796742737 227 245 255 0.23038632928219605 24 971 23 1017 25 1344 26 1620
1948 -6.3283120478728252 -2.0272869110202949 19.068742574982636 135 159 151 0.30199260502469805 30 1048 39 1162 37 1459
1135 0.90893045534259054 4.9113045277683565 10.135156767560225 104 77 33 0.47375675737258161 24 1034 23 1061 25 1418
1136 1.4284916215986529 5.1626694461055651 7.6619840885149957 90 62 29 0.72797483824415665 24 1216 23 1077 26 1846 25 1433
1137 10.049111874759133 -2.3731967110794998 23.196142027904919 156 135 79 0.84191919525549619 24 1290 23 1131 40 2362 28 2110 27 1990 21 2212 26 1886 22 2028
2016 -0.87964652583374314 -5.7113457762131246 18.084700232808903 115 77 77 0.12221064134664891 30 132 31 184
2541 -0.054665767123471126 0.83664355126458012 20.232328894122045 101 195 159 0.62873577965153293 28 547 26 341 25 368 22 711 32 565
1138 12.254496411264126 -1.9377868218544581 23.603532799159119 170 181 189 0.69339537232533788 24 1293 23 1135 21 2217 25 1473
1141 4.8650013201376963 5.0141249423049432 7.707686522895508 198 203 199 0.52555763441269721 24 1336 23 1167 26 1954
2020 -1.3644003598201442 -5.6214932583542341 18.389875269479791 131 139 144 0.46652046062491381 40 375 31 194 38 359 22 1043 35 443
3046 23.679807228471077 -2.5213142434854388 14.833653212572557 98 106 121 0.2238660752739691 28 2258 38 2008 34 1214
1143 1.046732484801014 4.9370178636137165 10.062715366537223 191 193 188 0.66675563580908126 24 1349 23 1178 27 2069 28 2320
2539 17.877138571682604 1.1441345534688103 11.171445348275856 220 234 252 0.39833791281745939 24 82 26 339 25 357
1144 0.59530527427553981 4.9517718054685158 10.019508223076794 188 187 180 0.53903632606806751 24 1350 23 1183 25 1549
1145 0.59530527427553981 4.9517718054685158 10.019508223076794 188 187 180 0.53903632606806751 24 1351 23 1184 25 1550
2024 -0.56849263887837609 -5.1071292478896559 18.498051508734985 25 26 33 0.3599697934472274 28 109 31 215 38 380 21 99 32 287 35 449
1146 2.2990178010517739 5.1212284367239036 7.7319473482385987 197 199 192 0.64793962711401432 24 1209 23 1185 27 2075 28 2323 26 1959 25 1554
1149 14.671780955756251 0.71151216428326247 8.8416157734190346 255 255 255 1.598276545548365 24 1396 23 1240 25 1774 26 2055
2028 -0.30095684247761018 -4.3192656120602813 19.103259503432767 196 121 132 0.48239287969948796 27 68 31 263 26 809 25 686
1151 17.674478756813951 1.1162671334381922 10.874521622787212 175 179 184 0.38439857161888669 24 1402 23 1243 26 1988 25 1696
1152 4.6284633039004035 5.0579243454812506 7.9967172531740065 98 65 38 0.5798109555035259 24 1429 23 1274 28 2486
1809 -0.67781067031347875 1.1439736606154549 19.801052628606303 213 142 159 1.0591171868329692 29 1860 27 2030 21 2373 25 1703 22 2367
1155 2.4449003496750668 5.2994329901738606 5.9319729222840198 198 200 200 0.61488737430273699 24 1441 23 1295 26 2033 27 2181 25 1750
1156 1.2962716252622477 5.1968297946793154 7.5615352991044773 192 194 184 0.38863048180278653 24 1440 23 1296 28 2413 27 2176 26 2027 25 1745
1157 2.327756779977709 5.368815731577409 5.6135882847228089 74 46 14 0.79252912823638477 24 1446 23 1301 25 1816
2839 16.880559341913933 -0.23667309976435105 22.830682051870273 206 216 213 2.4556070057166406 23 1530 32 1903 38 2274 33 1408
1158 0.32884173711796977 5.2410853163572186 7.4320501739160587 193 193 180 0.52274578880142564 24 1447 23 1302 27 2178 28 2415 26 2031 25 1751
1160 23.946661963671854 -2.149460391372934 14.654437679936121 255 255 255 1.4232846440585991 24 1556 26 2109 25 1825 22 2395 35 1595
1817 17.897345517109535 -1.8088379048497847 23.339207012272514 121 121 118 1.254505325726732 23 1233 27 2112 35 1515
2328 -0.85907782564763524 -3.1282092339499248 19.598727350065879 239 232 229 0.26399315763998632 31 323 38 495 32 377
1163 9.9759005772782512 -1.2595015634463884 22.991243320031 205 194 136 0.13616815206550889 24 1608 23 1445
1164 2.7961140047526039 4.958455076431787 8.9498048692025041 141 148 132 2.0226959666169519 24 1625 23 1469 27 2333
1821 5.0591382778124352 5.2191682476049941 5.9126470616513807 141 150 151 0.62047785999425442 28 2489 27 2180 26 1958 25 1665
2322 -0.40274483989386833 -4.3428048186724579 19.226757835386337 204 101 104 0.43781148715095392 28 157 38 431 35 480
1165 14.486912864906245 -2.3060112581884646 25.635944086845534 169 177 186 1.4792112399646979 23 1481 28 2580 22 2430
1168 2.5182406450739592 4.6217979504484914 8.2615582018691978 182 187 183 1.5676789952314385 24 1730 23 1544
1889 -4.1641312094141609 0.8356981620344166 19.748814317355922 124 145 147 0.15757331248424508 30 602 37 674 36 835
1169 -4.8312242995369052 -5.4950396342236312 18.370602651690813 141 143 148 0.52712398239232905 29 113 40 347 37 246 21 1378
1171 -1.9207447905569504 -5.5168691107546159 18.166114096724414 137 85 74 1.1663154030472873 39 238 40 373 31 929 38 1115
1172 -1.8873677081656932 -5.5678908718571378 18.358928126925623 141 79 73 0.57325948738284915 29 110 40 374 28 989 37 250 31 930 38 1116 21 943 22 1476
1893 -1.8083183448231976 1.0754187484507671 20.145164141899514 125 130 136 0.39087512351342457 39 722 37 704 31 1475 38 1302
1173 -5.135424086867924 -5.2206182851584746 18.411712601571427 142 151 149 0.46162279851395627 29 138 40 377 37 269
1176 -1.0666386735475746 -5.0176917765993476 18.492561428198535 168 91 72 0.71031945465938662 29 928 40 402 28 110 27 1314 37 279 31 220 36 455 21 955 22 246
1897 -1.9005989724341876 1.8781868742060022 19.642211837890702 171 184 199 0.58502731136058761 28 1339 37 748 31 1182 36 1425 38 1319 26 1419
